40627
-0.074820 -0.391665 0.917061
-0.029404 -0.429282 0.902692
0.022840 -0.464176 0.885449
0.082631 -0.479394 0.873701
0.079413 -0.460651 0.884022
0.041779 -0.431848 0.900978
0.036203 -0.399172 0.916161
0.082771 -0.366355 0.926786
0.143932 -0.361004 0.921390
0.174520 -0.373623 0.911015
0.163617 -0.375935 0.912087
0.195105 -0.378945 0.904619
0.237966 -0.401962 0.884194
0.275753 -0.445205 0.851911
0.305121 -0.477353 0.824036
0.313548 -0.492026 0.812156
0.300347 -0.478712 0.825001
0.323473 -0.439644 0.837901
0.398901 -0.407846 0.821304
0.467179 -0.418055 0.779085
0.500502 -0.450192 0.739476
0.502165 -0.456518 0.734453
0.538743 -0.436497 0.720573
0.605838 -0.412882 0.680065
0.638375 -0.395980 0.660058
0.625965 -0.403090 0.667597
0.642206 -0.431673 0.633427
0.650152 -0.440294 0.619228
0.604908 -0.473146 0.640483
0.112536 -0.652209 0.749639
-0.118055 -0.556129 0.822669
-0.309652 -0.467699 0.827873
-0.407188 -0.409573 0.816363
-0.397240 -0.397758 0.827036
-0.358172 -0.402368 0.842504
-0.293758 -0.428678 0.854366
-0.247473 -0.439951 0.863250
-0.249515 -0.418536 0.873253
-0.279550 -0.392332 0.876315
-0.279855 -0.402314 0.871679
-0.241555 -0.434548 0.867652
-0.214481 -0.430418 0.876777
-0.203617 -0.412942 0.887705
-0.172734 -0.433408 0.884489
-0.160242 -0.448478 0.879312
-0.152867 -0.435279 0.887223
-0.152144 -0.406638 0.900832
-0.144301 -0.401986 0.904204
-0.103277 -0.426078 0.898772
-0.063069 -0.450464 0.890564
-0.032133 -0.464919 0.884770
-0.014185 -0.464306 0.885561
0.009652 -0.452300 0.891814
0.038154 -0.428751 0.902617
0.029987 -0.397049 0.917307
0.015521 -0.370365 0.928757
0.048991 -0.383599 0.922200
0.118456 -0.436501 0.891872
0.156341 -0.458418 0.874878
0.166219 -0.454299 0.875205
0.158893 -0.457174 0.875069
0.191813 -0.456850 0.868617
0.254445 -0.451790 0.855069
0.320830 -0.465266 0.824982
0.333325 -0.477660 0.812856
0.299817 -0.460089 0.835720
0.258429 -0.424675 0.867678
0.323122 -0.437635 0.839088
0.408910 -0.469843 0.782330
0.477314 -0.468878 0.743186
0.505168 -0.438399 0.743378
0.514052 -0.447461 0.731798
0.528498 -0.477853 0.701675
0.579147 -0.464712 0.669800
0.620081 -0.433619 0.653815
0.634211 -0.443479 0.633327
0.639816 -0.453953 0.620131
0.639813 -0.460988 0.614923
-0.113043 -0.606089 0.787323
-0.284757 -0.479138 0.830265
-0.419759 -0.367156 0.830060
-0.425117 -0.358917 0.830936
-0.374019 -0.401455 0.836029
-0.326529 -0.429189 0.842126
-0.302044 -0.418874 0.856337
-0.300393 -0.379833 0.874923
-0.287601 -0.365325 0.885338
-0.274523 -0.380361 0.883155
-0.237790 -0.414282 0.878537
-0.244924 -0.417472 0.875059
-0.240729 -0.408282 0.880543
-0.170905 -0.438684 0.882240
-0.140166 -0.458343 0.877653
-0.180637 -0.437827 0.880725
-0.185434 -0.421077 0.887867
-0.141661 -0.439738 0.886884
-0.106136 -0.469283 0.876646
-0.088647 -0.472977 0.876604
-0.069970 -0.457149 0.886634
-0.033461 -0.452269 0.891254
-0.008501 -0.460577 0.887579
0.007624 -0.463055 0.886297
0.010602 -0.449723 0.893105
-0.014812 -0.419067 0.907835
0.027352 -0.432353 0.901289
0.113537 -0.477083 0.871494
0.136770 -0.477813 0.867750
0.141242 -0.455177 0.879127
0.158000 -0.438930 0.884521
0.164189 -0.434572 0.885545
0.203273 -0.445527 0.871886
0.272898 -0.446774 0.852009
0.330642 -0.428304 0.840971
0.329175 -0.417572 0.846922
0.278503 -0.435640 0.855952
0.295230 -0.476072 0.828369
0.370690 -0.503605 0.780366
0.415274 -0.500172 0.759852
0.441938 -0.474869 0.761046
0.501660 -0.458410 0.733619
0.547351 -0.478858 0.686369
0.536866 -0.500857 0.678909
0.546195 -0.489057 0.680069
0.602247 -0.459486 0.652817
0.643274 -0.453029 0.617223
0.639534 -0.485527 0.596037
-0.152191 -0.636905 0.755771
-0.333049 -0.498740 0.800210
-0.421444 -0.400811 0.813472
-0.421535 -0.392956 0.817248
-0.378078 -0.420109 0.824964
-0.356378 -0.422811 0.833202
-0.345524 -0.416309 0.841011
-0.355843 -0.389857 0.849345
-0.307400 -0.392807 0.866722
-0.235380 -0.440260 0.866468
-0.221259 -0.467459 0.855878
-0.244964 -0.440232 0.863822
-0.255877 -0.416599 0.872337
-0.197190 -0.445368 0.873363
-0.146236 -0.464427 0.873454
-0.176102 -0.443270 0.878920
-0.197789 -0.429384 0.881198
-0.145767 -0.459316 0.876231
-0.091844 -0.490324 0.866688
-0.093149 -0.498181 0.862055
-0.107276 -0.490919 0.864575
-0.075077 -0.488786 0.869167
-0.016065 -0.503183 0.864030
-0.004058 -0.514383 0.857551
-0.019522 -0.503760 0.863623
-0.037509 -0.472243 0.880670
0.008426 -0.476983 0.878872
0.086770 -0.504189 0.859223
0.097409 -0.486849 0.868038
0.093265 -0.452988 0.886625
0.127737 -0.450269 0.883709
0.149682 -0.451631 0.879559
0.175410 -0.448862 0.876216
0.210864 -0.438491 0.873649
0.266997 -0.413298 0.870573
0.345722 -0.410458 0.843801
0.357572 -0.443932 0.821624
0.312598 -0.477839 0.820946
0.329927 -0.499175 0.801232
0.382198 -0.503689 0.774740
0.412536 -0.515295 0.751189
0.427158 -0.544719 0.721677
0.477872 -0.538944 0.693669
0.535661 -0.487659 0.689388
0.556568 -0.469720 0.685270
0.556020 -0.501143 0.663097
0.589069 -0.514803 0.622877
0.627286 -0.516620 0.582765
-0.221787 -0.658628 0.719041
-0.385921 -0.523800 0.759407
-0.424988 -0.461249 0.778867
-0.401659 -0.470317 0.785794
-0.386652 -0.470717 0.793048
-0.365279 -0.466610 0.805510
-0.350379 -0.461889 0.814796
-0.342481 -0.459512 0.819485
-0.318719 -0.480060 0.817289
-0.243137 -0.505677 0.827753
-0.215268 -0.488330 0.845691
-0.257382 -0.453698 0.853178
-0.267590 -0.453618 0.850074
-0.221903 -0.483287 0.846873
-0.171519 -0.492663 0.853149
-0.162383 -0.477112 0.863711
-0.185759 -0.465783 0.865182
-0.168097 -0.476120 0.863164
-0.098428 -0.501833 0.859346
-0.085216 -0.500939 0.861277
-0.104635 -0.485063 0.868196
-0.102887 -0.489822 0.865730
-0.051575 -0.508136 0.859731
-0.001568 -0.505958 0.862556
-0.007916 -0.494651 0.869056
-0.052532 -0.483505 0.873764
-0.043353 -0.490291 0.870480
0.031035 -0.502075 0.864267
0.060840 -0.480945 0.874637
0.053477 -0.452808 0.890003
0.101583 -0.452638 0.885889
0.145409 -0.469615 0.870814
0.153456 -0.495193 0.855123
0.151917 -0.505152 0.849554
0.183342 -0.509966 0.840429
0.251815 -0.524253 0.813479
0.326420 -0.512960 0.793928
0.346675 -0.493475 0.797683
0.338941 -0.509479 0.790917
0.356865 -0.532573 0.767472
0.401790 -0.550531 0.731765
0.431778 -0.573258 0.696379
0.417725 -0.578081 0.700948
0.432456 -0.538128 0.723464
0.513169 -0.499668 0.697847
0.565546 -0.497728 0.657590
0.583056 -0.510580 0.631944
-0.316501 -0.619402 0.718449
-0.435233 -0.514022 0.739157
-0.446600 -0.498687 0.742873
-0.412180 -0.508702 0.755863
-0.403683 -0.490374 0.772382
-0.386602 -0.489296 0.781747
-0.373488 -0.485779 0.790269
-0.339643 -0.492575 0.801257
-0.307089 -0.510706 0.803041
-0.303400 -0.509268 0.805354
-0.290936 -0.488884 0.822404
-0.264865 -0.469075 0.842505
-0.229696 -0.486232 0.843100
-0.212617 -0.505738 0.836076
-0.217366 -0.495670 0.840870
-0.200476 -0.482813 0.852468
-0.180169 -0.479120 0.859059
-0.175140 -0.484694 0.856970
-0.131812 -0.504272 0.853426
-0.100663 -0.511884 0.853136
-0.120729 -0.491432 0.862508
-0.097723 -0.495660 0.863002
-0.077997 -0.509153 0.857135
-0.072645 -0.494624 0.866066
-0.034333 -0.475593 0.878995
-0.022414 -0.468066 0.883409
-0.034634 -0.477310 0.878052
-0.014257 -0.489991 0.871611
0.025357 -0.498742 0.866380
0.033993 -0.509501 0.859798
0.054923 -0.528150 0.847373
0.117172 -0.543106 0.831448
0.170562 -0.548584 0.818513
0.179729 -0.558917 0.809511
0.173752 -0.575287 0.799284
0.201155 -0.587062 0.784152
0.231949 -0.575273 0.784386
0.288188 -0.556843 0.779021
0.331282 -0.563378 0.756873
0.330539 -0.564067 0.756685
0.370874 -0.544168 0.752552
0.446238 -0.539123 0.714295
0.448443 -0.539328 0.712758
0.399006 -0.532857 0.746229
0.431607 -0.534403 0.726725
0.518242 -0.524751 0.675323
0.570338 -0.513364 0.641227
-0.432768 -0.512214 0.741855
-0.412881 -0.539731 0.733635
-0.423274 -0.530846 0.734194
-0.391998 -0.538981 0.745545
-0.369667 -0.538905 0.756920
-0.351106 -0.538499 0.765992
-0.304766 -0.554443 0.774410
-0.303860 -0.544233 0.781971
-0.308102 -0.534074 0.787298
-0.280743 -0.542479 0.791770
-0.247937 -0.540874 0.803730
-0.232672 -0.519658 0.822082
-0.249680 -0.485806 0.837647
-0.226694 -0.486583 0.843710
-0.182559 -0.511022 0.839957
-0.167762 -0.517238 0.839238
-0.153023 -0.519990 0.840354
-0.108973 -0.529988 0.840974
-0.123117 -0.516124 0.847619
-0.110276 -0.519048 0.847601
-0.073472 -0.534475 0.841985
-0.090979 -0.530906 0.842533
-0.076525 -0.537223 0.839961
-0.036335 -0.542342 0.839372
-0.021715 -0.539433 0.841749
-0.026948 -0.538070 0.842470
0.010063 -0.547960 0.836444
0.051971 -0.555213 0.830083
0.066287 -0.554479 0.829554
0.091051 -0.565350 0.819810
0.120140 -0.573373 0.810438
0.161780 -0.571297 0.804641
0.176365 -0.565490 0.805677
0.184817 -0.561120 0.806838
0.195366 -0.547953 0.813376
0.244044 -0.553320 0.796417
0.321279 -0.574060 0.753150
0.323299 -0.576715 0.750252
0.292562 -0.558776 0.776001
0.383349 -0.544696 0.745889
0.460128 -0.534623 0.708844
0.436200 -0.531901 0.725817
0.407444 -0.542542 0.734600
0.457922 -0.550045 0.698396
0.523087 -0.548456 0.652362
-0.383160 -0.586293 0.713757
-0.383299 -0.577983 0.720429
-0.362736 -0.578529 0.730566
-0.314565 -0.596501 0.738401
-0.306687 -0.589670 0.747150
-0.316601 -0.570196 0.758050
-0.298667 -0.564888 0.769220
-0.285834 -0.562383 0.775902
-0.267978 -0.560129 0.783864
-0.256811 -0.556207 0.790368
-0.221473 -0.570324 0.790999
-0.184642 -0.577992 0.794879
-0.178962 -0.559238 0.809460
-0.177534 -0.537418 0.824417
-0.145654 -0.534986 0.832211
-0.139214 -0.519509 0.843048
-0.137248 -0.503817 0.852837
-0.082323 -0.518079 0.851362
-0.060475 -0.532386 0.844339
-0.073881 -0.543258 0.836309
-0.072300 -0.542422 0.836989
-0.044765 -0.534278 0.844123
-0.017631 -0.538117 0.842686
-0.010042 -0.550449 0.834809
0.001179 -0.547046 0.837102
0.009177 -0.516818 0.856046
0.062640 -0.499887 0.863822
0.129002 -0.512959 0.848665
0.144725 -0.517442 0.843391
0.166837 -0.499102 0.850331
0.185706 -0.479512 0.857661
0.201417 -0.485022 0.850990
0.239960 -0.518587 0.820662
0.308037 -0.552163 0.774745
0.344453 -0.559488 0.753874
0.307242 -0.568396 0.763236
0.304045 -0.595515 0.743585
0.381005 -0.598541 0.704688
0.414497 -0.569930 0.709487
0.411140 -0.553873 0.724008
0.428549 -0.572605 0.698906
0.470230 -0.591792 0.654725
-0.343577 -0.584251 0.735258
-0.325005 -0.587281 0.741264
-0.333173 -0.582832 0.741149
-0.325153 -0.584277 0.743569
-0.289802 -0.592265 0.751822
-0.266947 -0.597112 0.756437
-0.263041 -0.587600 0.765203
-0.237649 -0.582486 0.777324
-0.217530 -0.582464 0.783209
-0.214156 -0.579956 0.785995
-0.208301 -0.582517 0.785675
-0.177173 -0.588623 0.788754
-0.165489 -0.574116 0.801875
-0.168242 -0.550278 0.817856
-0.121786 -0.550974 0.825588
-0.054930 -0.563959 0.823974
-0.058023 -0.556506 0.828815
-0.083693 -0.539402 0.837879
-0.080017 -0.540697 0.837403
-0.037464 -0.551616 0.833257
-0.007745 -0.550037 0.835105
-0.009086 -0.542649 0.839911
-0.023843 -0.536311 0.843684
0.000555 -0.545390 0.838182
0.076231 -0.553767 0.829175
0.111939 -0.539145 0.834741
0.109710 -0.520879 0.846551
0.137587 -0.518105 0.844178
0.189722 -0.524762 0.829838
0.235019 -0.533019 0.812808
0.294186 -0.540864 0.787985
0.342477 -0.541314 0.767912
0.363416 -0.545904 0.754929
0.346673 -0.562441 0.750652
0.357741 -0.578739 0.732859
0.374144 -0.567799 0.733226
0.400622 -0.550445 0.732470
0.442363 -0.563555 0.697654
-0.310669 -0.606336 0.732012
-0.314040 -0.603940 0.732554
-0.289493 -0.604940 0.741783
-0.300169 -0.591279 0.748524
-0.300960 -0.577920 0.758572
-0.246425 -0.584144 0.773338
-0.202692 -0.590802 0.780941
-0.179471 -0.600427 0.779280
-0.186665 -0.600210 0.777756
-0.193441 -0.592915 0.781685
-0.197561 -0.586097 0.785786
-0.160706 -0.597153 0.785864
-0.096511 -0.612945 0.784209
-0.082749 -0.597812 0.797354
-0.099436 -0.565891 0.818462
-0.074834 -0.565860 0.821098
-0.049269 -0.581232 0.812245
-0.038620 -0.585484 0.809763
-0.025175 -0.581368 0.813251
-0.020611 -0.575452 0.817576
0.001255 -0.585583 0.810611
0.019766 -0.596987 0.802008
0.062710 -0.598421 0.798724
0.092678 -0.599198 0.795219
0.123137 -0.617791 0.776641
0.135383 -0.627110 0.767075
0.162305 -0.619776 0.767812
0.213307 -0.610868 0.762457
0.271696 -0.599627 0.752747
0.323021 -0.581102 0.746980
0.350246 -0.562903 0.748644
0.361330 -0.550846 0.752335
0.375012 -0.546788 0.748591
0.383060 -0.559077 0.735322
0.421352 -0.577123 0.699565
-0.293901 -0.596607 0.746781
-0.299133 -0.599737 0.742182
-0.274627 -0.613248 0.740613
-0.241631 -0.619584 0.746813
-0.210823 -0.617421 0.757856
-0.212756 -0.597078 0.773455
-0.213250 -0.576443 0.788821
-0.199966 -0.571152 0.796115
-0.168053 -0.587045 0.791920
-0.138853 -0.597933 0.789428
-0.128496 -0.584324 0.801283
-0.133389 -0.570250 0.810569
-0.100323 -0.583369 0.805988
-0.056817 -0.592134 0.803834
-0.049287 -0.581243 0.812236
-0.034383 -0.576194 0.816589
-0.026282 -0.580182 0.814063
-0.006522 -0.590349 0.807122
0.021740 -0.600986 0.798964
0.043820 -0.613351 0.788594
0.074982 -0.624878 0.777113
0.112013 -0.623819 0.773501
0.132144 -0.615584 0.776914
0.142039 -0.618741 0.772648
0.173892 -0.634241 0.753326
0.213055 -0.645273 0.733642
0.236078 -0.637976 0.732976
0.280876 -0.617335 0.734851
0.312594 -0.602005 0.734762
0.341360 -0.600821 0.722833
0.362397 -0.605356 0.708670
-0.230603 -0.629473 0.742015
-0.225014 -0.628694 0.744388
-0.243826 -0.613699 0.750948
-0.225706 -0.609574 0.759919
-0.180895 -0.618667 0.764545
-0.163293 -0.615853 0.770753
-0.159129 -0.603294 0.781482
-0.128995 -0.608989 0.782619
-0.092591 -0.625758 0.774502
-0.085343 -0.623213 0.777382
-0.079135 -0.613761 0.785516
-0.074944 -0.603516 0.793821
-0.034980 -0.599924 0.799292
-0.010262 -0.599370 0.800407
0.022000 -0.608270 0.793425
0.045978 -0.619705 0.783487
0.061071 -0.625312 0.777981
0.071584 -0.624786 0.777508
0.096298 -0.623277 0.776049
0.138266 -0.625080 0.768218
0.180072 -0.635042 0.751196
0.211714 -0.640551 0.738154
0.222310 -0.643912 0.732090
0.225932 -0.649391 0.726117
0.261699 -0.652523 0.711145
-0.177655 -0.637804 0.749430
-0.176512 -0.630298 0.756021
-0.133371 -0.647812 0.750034
-0.109014 -0.652922 0.749539
-0.119302 -0.633291 0.764663
-0.101510 -0.622295 0.776173
-0.074751 -0.631061 0.772123
-0.071763 -0.637463 0.767132
-0.050729 -0.633417 0.772146
-0.005600 -0.632297 0.774706
0.043581 -0.641631 0.765774
0.055184 -0.646217 0.761156
0.063556 -0.646443 0.760310
0.079588 -0.646547 0.758711
0.104957 -0.647323 0.754955
0.146403 -0.646229 0.748969
0.181529 -0.643446 0.743656
0.221886 -0.646130 0.730262
-0.058705 -0.641300 0.765041
-0.060057 -0.651411 0.756344
-0.044783 -0.659222 0.750614
0.011188 -0.665040 0.746724
0.051102 -0.664254 0.745758
0.056131 -0.666030 0.743810
0.755730 0.624904 0.195876
0.581392 0.783306 0.220035
0.503017 0.855687 0.121550
0.471242 0.881257 0.036294
0.416926 0.908920 -0.006151
0.358036 0.930213 -0.080714
0.384520 0.901785 -0.197303
0.380008 0.859826 -0.341019
0.736647 0.594226 0.322872
0.608400 0.705928 0.362651
0.554430 0.793726 0.250212
0.526137 0.846393 0.082455
0.507663 0.857345 0.085069
0.459006 0.886041 0.065149
0.366871 0.923265 -0.113963
0.276085 0.925748 -0.258395
0.233294 0.917782 -0.321327
0.231074 0.875967 -0.423423
0.218361 0.792933 -0.568837
0.835850 0.333396 0.436122
0.728153 0.499991 0.468830
0.692588 0.584803 0.422289
0.690679 0.685064 0.231626
0.646531 0.756611 0.097655
0.626513 0.767891 0.133510
0.608915 0.791995 0.044340
0.532063 0.829083 -0.171847
0.436447 0.857995 -0.270849
0.326349 0.870758 -0.367800
0.186800 0.831994 -0.522390
0.122594 0.780213 -0.613382
0.161630 0.736261 -0.657111
0.811397 0.240335 0.532798
0.775868 0.345490 0.527889
0.803566 0.404311 0.436822
0.804902 0.531760 0.263370
0.738999 0.653730 0.162844
0.719143 0.682371 0.131162
0.718005 0.695297 -0.032109
0.669106 0.708010 -0.225874
0.602534 0.724554 -0.334626
0.506044 0.718655 -0.476922
0.332948 0.722681 -0.605704
0.187642 0.743156 -0.642270
0.125227 0.747578 -0.652262
0.103737 0.729433 -0.676141
0.825596 0.141835 0.546145
0.853029 0.241144 0.462807
0.843979 0.405648 0.350927
0.805461 0.551681 0.216520
0.807366 0.585551 0.072736
0.796570 0.598072 -0.088240
0.726393 0.654840 -0.208658
0.636697 0.688859 -0.346540
0.534506 0.683751 -0.496778
0.424761 0.660858 -0.618745
0.303477 0.650345 -0.696386
0.207785 0.681059 -0.702128
0.105555 0.623489 -0.774674
0.832467 0.228221 0.504890
0.856904 0.321478 0.402948
0.878945 0.417977 0.229673
0.875632 0.481438 0.038545
0.834326 0.548872 -0.051382
0.760665 0.630488 -0.154513
0.661373 0.662676 -0.351350
0.564276 0.634151 -0.528626
0.462247 0.598389 -0.654414
0.382021 0.633944 -0.672439
0.264901 0.613466 -0.743968
0.130160 0.565837 -0.814179
0.844661 0.124733 0.520567
0.901720 0.156645 0.402944
0.926999 0.268862 0.261506
0.881498 0.457939 0.115120
0.841827 0.539745 -0.001560
0.818990 0.545651 -0.177540
0.726100 0.537131 -0.429265
0.607460 0.516698 -0.603337
0.544164 0.540837 -0.641390
0.453164 0.513297 -0.728814
0.319016 0.432100 -0.843516
0.205645 0.450761 -0.868634
0.896481 0.092134 0.433397
0.912836 0.205648 0.352760
0.935280 0.312526 0.166070
0.926698 0.373384 -0.042610
0.876192 0.430769 -0.216160
0.764517 0.464972 -0.446447
0.642798 0.445521 -0.623154
0.577484 0.417112 -0.701805
0.459984 0.361897 -0.810830
0.379091 0.375089 -0.845930
0.287015 0.413848 -0.863917
0.132497 0.382972 -0.914209
0.889080 0.052392 0.454744
0.936527 0.040160 0.348287
0.968459 0.127941 0.213817
0.944851 0.323856 0.048726
0.894204 0.392870 -0.214599
0.788237 0.329519 -0.519712
0.696355 0.315809 -0.644480
0.607387 0.364079 -0.706065
0.467929 0.374342 -0.800569
0.403097 0.372497 -0.835918
0.311640 0.308180 -0.898836
0.145928 0.231530 -0.961821
0.170213 0.963293 -0.207589
0.149109 0.960332 -0.235646
0.127992 0.953785 -0.271866
0.119706 0.948731 -0.292542
0.102326 0.952352 -0.287324
0.069788 0.948944 -0.307628
0.881957 -0.053101 0.468329
0.929157 0.018155 0.369239
0.939600 0.132219 0.315704
0.969934 0.227654 0.086028
0.924650 0.215093 -0.314257
0.808517 0.226944 -0.542953
0.741680 0.326539 -0.585904
0.638750 0.339160 -0.690629
0.496678 0.282282 -0.820749
0.407407 0.259573 -0.875581
0.303938 0.253080 -0.918462
0.170048 0.243032 -0.954997
0.028061 0.258111 -0.965708
0.119121 0.897561 -0.424493
0.225048 0.933044 -0.280683
0.216968 0.929671 -0.297720
0.184585 0.927402 -0.325352
0.179474 0.943850 -0.277375
0.150041 0.946191 -0.286725
0.094757 0.925205 -0.367447
0.075570 0.915599 -0.394926
0.064180 0.896553 -0.438263
0.047655 0.874794 -0.482146
0.042103 0.892288 -0.449499
0.000199 0.881395 -0.472380
-0.032706 0.871733 -0.488888
-0.038407 0.884063 -0.465786
0.915585 0.023217 0.401454
0.944121 0.024499 0.328686
0.997871 0.025408 0.060066
0.953804 0.108122 -0.280300
0.867437 0.221858 -0.445345
0.771917 0.203087 -0.602412
0.633526 0.129470 -0.762812
0.535039 0.156215 -0.830259
0.459524 0.230085 -0.857845
0.313472 0.213667 -0.925247
0.176555 0.145366 -0.973497
0.072693 0.141430 -0.987276
-0.020055 0.657808 -0.752919
0.177882 0.863411 -0.472102
0.270498 0.892679 -0.360492
0.280229 0.897667 -0.340096
0.262851 0.904955 -0.334613
0.269054 0.906521 -0.325314
0.240443 0.879425 -0.410852
0.188199 0.858989 -0.476150
0.130609 0.850295 -0.509842
0.077381 0.838258 -0.539756
0.084424 0.870204 -0.485405
0.093260 0.894999 -0.436211
0.041415 0.873308 -0.485406
0.001792 0.855993 -0.516984
-0.015357 0.846979 -0.531405
-0.040738 0.841736 -0.538351
0.913489 -0.076831 0.399542
0.949172 -0.087935 0.302226
0.992163 -0.061624 0.108700
0.980318 0.016829 -0.196708
0.884190 0.033603 -0.465918
0.780376 0.081843 -0.619932
0.664498 0.147879 -0.732512
0.573722 0.167213 -0.801800
0.472977 0.130227 -0.871397
0.312162 0.100988 -0.944646
0.191591 0.107696 -0.975548
0.100761 0.117637 -0.987932
-0.028672 0.180305 -0.983193
-0.049386 0.374569 -0.925883
0.097670 0.648920 -0.754562
0.256752 0.807911 -0.530433
0.317827 0.875657 -0.363607
0.307403 0.878393 -0.365964
0.305555 0.855281 -0.418485
0.305645 0.830981 -0.464813
0.276171 0.807553 -0.521141
0.260848 0.826892 -0.498205
0.213883 0.853805 -0.474627
0.139579 0.865057 -0.481866
0.112455 0.864560 -0.489785
0.108230 0.840798 -0.530420
0.079270 0.817108 -0.571009
0.040559 0.813439 -0.580234
0.017531 0.812570 -0.582600
-0.004227 0.803814 -0.594865
-0.043429 0.789984 -0.611587
-0.062838 0.812500 -0.579565
-0.102534 0.797265 -0.594858
0.948909 -0.119661 0.291981
0.981538 -0.099134 0.163569
0.991774 -0.019064 -0.126570
0.916134 0.070211 -0.394675
0.810492 0.104480 -0.576357
0.665024 0.043045 -0.745580
0.570311 -0.005790 -0.821408
0.483522 0.001204 -0.875331
0.341599 0.063060 -0.937728
0.209010 0.114950 -0.971134
0.122205 0.110472 -0.986338
0.049422 0.153308 -0.986942
0.073371 0.352666 -0.932868
0.223387 0.663400 -0.714142
0.342434 0.837917 -0.425011
0.360564 0.862664 -0.354690
0.321829 0.841357 -0.434218
0.306842 0.848670 -0.430822
0.286310 0.870130 -0.401123
0.249216 0.870514 -0.424379
0.247729 0.860384 -0.445387
0.247994 0.841455 -0.480054
0.203597 0.821828 -0.532116
0.148202 0.814871 -0.560377
0.123775 0.822933 -0.554491
0.103348 0.821781 -0.560353
0.061923 0.782504 -0.619558
0.045186 0.781300 -0.622518
0.014941 0.789524 -0.613537
-0.006414 0.805766 -0.592199
-0.031980 0.803799 -0.594041
-0.057133 0.818571 -0.571557
0.942493 -0.115763 0.313537
0.973982 -0.079885 0.212081
0.994150 -0.075383 -0.077356
0.915382 -0.100868 -0.389744
0.792750 -0.097102 -0.601763
0.653119 -0.047269 -0.755779
0.567020 -0.029380 -0.823180
0.539245 0.005689 -0.842130
0.412471 0.080825 -0.907378
0.209309 0.061950 -0.975885
0.134899 0.057138 -0.989211
0.146482 0.216092 -0.965322
0.234853 0.509050 -0.828078
0.361275 0.727295 -0.583543
0.435013 0.789452 -0.433047
0.425805 0.801455 -0.419953
0.375804 0.828740 -0.414683
0.350906 0.850422 -0.391979
0.323988 0.831197 -0.451823
0.289272 0.796580 -0.530831
0.278538 0.797312 -0.535453
0.273824 0.805553 -0.525457
0.248688 0.791793 -0.557869
0.209700 0.772080 -0.599932
0.175860 0.765779 -0.618592
0.124288 0.727296 -0.674976
0.098775 0.724113 -0.682572
0.106575 0.785355 -0.609802
0.068142 0.803360 -0.591583
0.023101 0.794449 -0.606892
0.000640 0.791235 -0.611511
-0.018482 0.792473 -0.609627
-0.065971 0.766516 -0.638827
0.643629 0.659732 0.387938
0.688329 0.586152 0.427351
0.915597 -0.120351 0.383664
0.975331 -0.103263 0.195105
0.983721 -0.155818 -0.089519
0.929686 -0.125968 -0.346144
0.845218 -0.053687 -0.531718
0.695883 0.024153 -0.717749
0.571314 0.061036 -0.818459
0.541986 0.036525 -0.839593
0.396989 -0.058328 -0.915968
0.234421 -0.057549 -0.970430
0.228760 0.086155 -0.969663
0.288954 0.313459 -0.904571
0.371888 0.556173 -0.743217
0.448832 0.730944 -0.514073
0.464104 0.797766 -0.384938
0.452254 0.809797 -0.373758
0.431211 0.788208 -0.439074
0.423799 0.757148 -0.497114
0.388774 0.740646 -0.547994
0.350993 0.769265 -0.533887
0.317800 0.800477 -0.508173
0.274434 0.793539 -0.543123
0.236193 0.755556 -0.611023
0.224964 0.713651 -0.663395
0.223533 0.728288 -0.647788
0.152560 0.737748 -0.657612
0.128648 0.758594 -0.638737
0.140959 0.752807 -0.642971
0.125916 0.737014 -0.664045
0.070240 0.724198 -0.686005
0.044525 0.742023 -0.668894
0.017052 0.746723 -0.664917
-0.025681 0.738100 -0.674202
-0.059614 0.735539 -0.674855
-0.089323 0.744971 -0.661090
-0.068132 0.707159 -0.703764
0.551518 0.737510 0.389753
0.583795 0.740167 0.333671
0.601659 0.718850 0.348226
0.618748 0.691036 0.373658
0.884897 -0.123290 0.449174
0.970250 -0.174667 0.167648
0.987946 -0.146466 -0.050111
0.943078 -0.118354 -0.310800
0.843297 -0.168597 -0.510318
0.740498 -0.128470 -0.659665
0.591617 -0.053902 -0.804415
0.480424 -0.075323 -0.873796
0.364005 -0.097328 -0.926298
0.306540 -0.000803 -0.951857
0.371428 0.231827 -0.899054
0.440557 0.538439 -0.718327
0.456369 0.753909 -0.472597
0.446539 0.823654 -0.349567
0.440607 0.817802 -0.370223
0.435360 0.788513 -0.434407
0.415492 0.776405 -0.473879
0.396598 0.773776 -0.493944
0.389806 0.770186 -0.504841
0.390819 0.758870 -0.520938
0.382444 0.739993 -0.553306
0.330272 0.720182 -0.610129
0.249973 0.702104 -0.666756
0.230998 0.724376 -0.649553
0.243750 0.758995 -0.603749
0.189016 0.733597 -0.652770
0.139041 0.688987 -0.711312
0.150345 0.703185 -0.694930
0.150633 0.750355 -0.643643
0.102747 0.748602 -0.655010
0.071011 0.731174 -0.678485
0.045092 0.713578 -0.699123
0.007210 0.696304 -0.717711
-0.026065 0.711291 -0.702414
-0.048827 0.733925 -0.677473
-0.079311 0.725818 -0.683300
-0.122606 0.711198 -0.692217
-0.145980 0.711778 -0.687068
-0.131013 0.705144 -0.696855
-0.087085 0.698617 -0.710176
0.635733 0.680197 0.364932
0.636687 0.690960 0.342350
0.635443 0.686430 0.353590
0.660968 0.670832 0.336312
0.874651 -0.167383 0.454937
0.960586 -0.180611 0.211315
0.981736 -0.189663 -0.014887
0.920929 -0.202464 -0.333012
0.859098 -0.147626 -0.490059
0.766015 -0.149798 -0.625125
0.600090 -0.187587 -0.777627
0.498265 -0.142718 -0.855198
0.445015 0.008046 -0.895487
0.443886 0.261077 -0.857207
0.502591 0.558134 -0.660218
0.514066 0.715758 -0.472680
0.519960 0.767166 -0.375629
0.509196 0.761113 -0.401780
0.488904 0.753717 -0.439186
0.469336 0.756692 -0.455128
0.439903 0.768502 -0.464639
0.396237 0.779391 -0.485331
0.358661 0.769206 -0.528852
0.358021 0.744437 -0.563591
0.370053 0.696046 -0.615288
0.376391 0.675116 -0.634467
0.314075 0.694573 -0.647244
0.275346 0.727647 -0.628263
0.255955 0.690159 -0.676881
0.215905 0.649474 -0.729087
0.181554 0.683432 -0.707078
0.194421 0.750738 -0.631342
0.173665 0.739608 -0.650246
0.117584 0.707844 -0.696514
0.082492 0.711706 -0.697617
0.053548 0.706928 -0.705256
0.043449 0.741866 -0.669139
0.011934 0.759166 -0.650787
-0.038539 0.725746 -0.686882
-0.067908 0.706742 -0.704204
-0.083530 0.727665 -0.680828
-0.117358 0.743529 -0.658324
-0.148337 0.737217 -0.659172
-0.131859 0.734662 -0.665495
-0.088574 0.723935 -0.684158
0.589043 0.677709 0.440158
0.646412 0.662022 0.379313
0.657594 0.664991 0.354059
0.661542 0.662865 0.350674
0.680718 0.646426 0.344611
0.699646 0.640343 0.316947
0.721697 0.559121 0.408090
0.879860 -0.108688 0.462637
0.957765 -0.172096 0.230365
0.974560 -0.223857 -0.011027
0.946078 -0.204141 -0.251519
0.853070 -0.192847 -0.484853
0.703332 -0.220444 -0.675817
0.615178 -0.165439 -0.770835
0.608777 -0.038303 -0.792416
0.611320 0.164379 -0.774124
0.622087 0.447118 -0.642723
0.606021 0.627051 -0.489434
0.588269 0.692966 -0.416818
0.577871 0.698952 -0.421344
0.564650 0.687005 -0.457377
0.542852 0.693772 -0.473278
0.524367 0.716819 -0.459577
0.504181 0.722386 -0.473244
0.479248 0.693555 -0.537868
0.433138 0.664566 -0.608887
0.379202 0.679034 -0.628584
0.343339 0.688205 -0.639135
0.363001 0.694422 -0.621296
0.355131 0.681948 -0.639397
0.303095 0.660378 -0.687048
0.266037 0.673112 -0.690032
0.232224 0.714616 -0.659846
0.201680 0.736769 -0.645365
0.196908 0.718262 -0.667328
0.196094 0.682368 -0.704217
0.174979 0.686920 -0.705353
0.125538 0.702638 -0.700386
0.087224 0.721099 -0.687320
0.072986 0.726610 -0.683162
0.040095 0.694570 -0.718307
-0.001900 0.700441 -0.713708
-0.037812 0.721116 -0.691782
-0.058378 0.718171 -0.693413
-0.079052 0.714085 -0.695582
-0.128443 0.699403 -0.703092
-0.151864 0.688159 -0.709489
-0.132760 0.670437 -0.729993
0.659654 0.636845 0.399105
0.678264 0.635714 0.368546
0.689819 0.631880 0.353380
0.708518 0.621609 0.334073
0.724688 0.609085 0.322246
0.743970 0.597162 0.299845
0.763417 0.526966 0.373499
0.902361 -0.145149 0.405804
0.946699 -0.246627 0.207208
0.965817 -0.259225 0.000192
0.935374 -0.265756 -0.233344
0.860157 -0.245234 -0.447202
0.797538 -0.101705 -0.594634
0.716730 0.109200 -0.688748
0.681347 0.357756 -0.638574
0.649543 0.571369 -0.501629
0.615503 0.685689 -0.388570
0.596885 0.706148 -0.380897
0.590387 0.705850 -0.391431
0.568782 0.699616 -0.432464
0.560217 0.702742 -0.438532
0.551213 0.716730 -0.427156
0.529326 0.697470 -0.483062
0.504025 0.652687 -0.565648
0.476015 0.631970 -0.611574
0.479869 0.655071 -0.583616
0.443234 0.667621 -0.598185
0.381008 0.655259 -0.652279
0.374279 0.648768 -0.662582
0.371506 0.644064 -0.668704
0.342093 0.668878 -0.659981
0.312918 0.709812 -0.631070
0.277769 0.715197 -0.641356
0.225441 0.706642 -0.670697
0.174103 0.687804 -0.704708
0.171637 0.675531 -0.717076
0.196462 0.688038 -0.698574
0.169217 0.676882 -0.716378
0.130315 0.651198 -0.747635
0.100980 0.628996 -0.770822
0.081894 0.652882 -0.753020
0.050169 0.660578 -0.749079
0.001908 0.636014 -0.771676
-0.027646 0.647625 -0.761458
-0.047756 0.663865 -0.746326
-0.093940 0.651452 -0.752852
-0.137803 0.660207 -0.738334
-0.146803 0.674142 -0.723866
-0.134563 0.678054 -0.722590
0.676199 0.595945 0.433134
0.691756 0.614989 0.378501
0.697528 0.621185 0.357191
0.715704 0.613140 0.334405
0.739874 0.590289 0.322716
0.766241 0.565721 0.304689
0.778954 0.551784 0.297935
0.799144 0.496786 0.338485
0.854057 0.324028 0.406930
0.902802 0.092502 0.419989
0.933487 -0.067528 0.352196
0.963209 -0.102083 0.248611
0.992890 -0.105028 0.056023
0.975852 -0.081650 -0.202600
0.939231 0.051734 -0.339365
0.887560 0.268175 -0.374592
0.773668 0.516584 -0.366850
0.672645 0.642929 -0.366322
0.643507 0.679597 -0.352203
0.622667 0.678443 -0.389873
0.616658 0.665568 -0.420418
0.619490 0.662332 -0.421364
0.597123 0.671701 -0.438477
0.578529 0.690087 -0.434837
0.564275 0.671096 -0.480857
0.547940 0.665501 -0.506824
0.503665 0.694902 -0.513257
0.448746 0.710302 -0.542308
0.426213 0.724943 -0.541111
0.394391 0.708074 -0.585736
0.361818 0.674406 -0.643634
0.367554 0.666678 -0.648416
0.372564 0.667019 -0.645199
0.369929 0.657160 -0.656729
0.357224 0.631663 -0.688036
0.340188 0.635264 -0.693334
0.293383 0.638706 -0.711323
0.226380 0.658383 -0.717833
0.184927 0.697486 -0.692326
0.172981 0.694372 -0.698517
0.157540 0.651561 -0.742058
0.133219 0.631074 -0.764197
0.122753 0.655495 -0.745156
0.101222 0.657289 -0.746810
0.063181 0.642343 -0.763808
0.028484 0.657351 -0.753046
0.003026 0.680096 -0.733117
-0.027041 0.675114 -0.737218
-0.061108 0.660052 -0.748730
-0.101853 0.666762 -0.738278
-0.139511 0.661959 -0.736442
-0.139505 0.650236 -0.746815
-0.128525 0.625885 -0.769253
0.658377 0.579406 0.480446
0.673929 0.610530 0.416021
0.685530 0.627003 0.370023
0.710556 0.619101 0.334402
0.746172 0.597309 0.294022
0.765433 0.574430 0.290073
0.775295 0.565882 0.280526
0.794219 0.544314 0.270071
0.824294 0.492806 0.278715
0.841709 0.429669 0.326972
0.864598 0.352415 0.358153
0.911198 0.251242 0.326490
0.962258 0.141329 0.232563
0.977016 0.175727 0.120663
0.929584 0.368126 -0.018888
0.855862 0.498685 -0.137159
0.820519 0.538718 -0.191134
0.788167 0.545096 -0.285767
0.742022 0.564165 -0.362106
0.713020 0.592850 -0.374340
0.677207 0.608338 -0.413902
0.650169 0.628621 -0.426750
0.649920 0.614513 -0.447189
0.657254 0.613960 -0.437115
0.628783 0.640785 -0.440485
0.571054 0.669165 -0.475517
0.544926 0.692410 -0.472888
0.516445 0.715876 -0.469899
0.469843 0.754535 -0.458176
0.424966 0.753871 -0.501082
0.368148 0.701499 -0.610218
0.340134 0.674869 -0.654875
0.348784 0.686136 -0.638409
0.349834 0.677675 -0.646817
0.345266 0.684300 -0.642281
0.327660 0.698377 -0.636324
0.312357 0.682396 -0.660885
0.300550 0.653815 -0.694403
0.283293 0.644585 -0.710110
0.245928 0.635262 -0.732094
0.196007 0.626327 -0.754517
0.165564 0.666175 -0.727186
0.137170 0.694427 -0.706367
0.119676 0.684507 -0.719116
0.107853 0.676071 -0.728900
0.086564 0.699876 -0.708999
0.046080 0.685386 -0.726721
0.012653 0.643430 -0.765401
-0.013151 0.625227 -0.780332
-0.026654 0.665312 -0.746089
-0.075002 0.645287 -0.760249
-0.129993 0.597726 -0.791091
-0.143975 0.593538 -0.791824
-0.115962 0.638255 -0.761041
0.687604 0.558745 0.463686
0.720412 0.571869 0.392394
0.773934 0.536511 0.336425
0.806380 0.504526 0.308552
0.791258 0.530039 0.304909
0.769563 0.565662 0.296308
0.793334 0.552576 0.255502
0.807374 0.531829 0.255548
0.781711 0.555669 0.283126
0.793176 0.535634 0.289772
0.846532 0.452841 0.279855
0.888867 0.384120 0.249736
0.883869 0.397563 0.246411
0.870046 0.446024 0.209957
0.896295 0.443136 0.016886
0.887847 0.436151 -0.146631
0.856650 0.473315 -0.205240
0.804913 0.533639 -0.259508
0.750918 0.585650 -0.305182
0.713923 0.608364 -0.346709
0.681917 0.613347 -0.398491
0.657569 0.600261 -0.455290
0.649342 0.604242 -0.461787
0.658275 0.645214 -0.387779
0.636163 0.658725 -0.401719
0.602841 0.678196 -0.420278
0.569795 0.703948 -0.424018
0.550198 0.696567 -0.460517
0.532387 0.625423 -0.570447
0.498093 0.560402 -0.661704
0.444155 0.573809 -0.688091
0.403056 0.622794 -0.670577
0.381906 0.668915 -0.637730
0.361624 0.705817 -0.609139
0.350585 0.690860 -0.632299
0.343697 0.618514 -0.706621
0.331614 0.596928 -0.730554
0.304542 0.629749 -0.714612
0.272275 0.640801 -0.717802
0.248734 0.627403 -0.737900
0.250315 0.630408 -0.734798
0.232397 0.639574 -0.732759
0.175589 0.622779 -0.762440
0.140364 0.627946 -0.765494
0.137536 0.664029 -0.734949
0.108076 0.636797 -0.763419
0.062364 0.602113 -0.795972
0.032811 0.613801 -0.788779
0.022255 0.649050 -0.760420
-0.003001 0.643017 -0.765846
-0.058841 0.589315 -0.805757
-0.106194 0.597504 -0.794803
-0.130771 0.638261 -0.758632
-0.124020 0.645056 -0.754004
-0.130233 0.578098 -0.805507
0.709988 0.488740 0.507001
0.745436 0.490042 0.451867
0.776913 0.520076 0.354862
0.782764 0.540611 0.308253
0.762484 0.560353 0.323454
0.765993 0.559796 0.316044
0.811904 0.523958 0.257450
0.814087 0.526456 0.245167
0.790806 0.542792 0.282849
0.826947 0.498329 0.260435
0.866922 0.437699 0.238464
0.855756 0.447052 0.260435
0.841380 0.476495 0.255015
0.859067 0.452359 0.239530
0.909057 0.398351 0.122199
0.918580 0.393357 -0.038495
0.893331 0.439532 -0.093661
0.873842 0.460854 -0.154962
0.850055 0.476076 -0.225295
0.805169 0.515967 -0.292370
0.753053 0.558725 -0.347474
0.703826 0.580044 -0.410095
0.663577 0.616478 -0.423817
0.649542 0.660367 -0.376843
0.646008 0.665386 -0.374078
0.641887 0.643116 -0.417591
0.641251 0.619693 -0.452524
0.635942 0.565348 -0.525318
0.610588 0.475354 -0.633419
0.586297 0.448881 -0.674361
0.560666 0.476267 -0.677365
0.525746 0.523475 -0.670496
0.491899 0.599922 -0.630974
0.446253 0.625786 -0.639726
0.401038 0.580492 -0.708659
0.355037 0.517120 -0.778804
0.366382 0.549066 -0.751193
0.393895 0.624014 -0.674873
0.359385 0.673152 -0.646304
0.279549 0.668625 -0.689052
0.216860 0.635792 -0.740770
0.221709 0.611203 -0.759786
0.246065 0.587539 -0.770876
0.222587 0.581402 -0.782577
0.194478 0.603864 -0.772999
0.165166 0.608914 -0.775850
0.122964 0.587317 -0.799962
0.093880 0.601657 -0.793218
0.061919 0.630014 -0.774112
0.038432 0.649601 -0.759303
-0.007886 0.603265 -0.797502
-0.028500 0.610957 -0.791151
-0.056709 0.646935 -0.760433
-0.110792 0.631678 -0.767273
-0.144243 0.595344 -0.790417
-0.138208 0.584191 -0.799762
0.687680 0.523195 0.503351
0.727211 0.492714 0.477909
0.757092 0.489541 0.432622
0.760687 0.539312 0.361245
0.747101 0.579301 0.325961
0.772839 0.558846 0.300685
0.820342 0.511086 0.256576
0.827328 0.502302 0.251438
0.820623 0.503557 0.270200
0.855082 0.462867 0.233642
0.883970 0.422746 0.199706
0.868625 0.422404 0.258971
0.860715 0.426563 0.277875
0.877313 0.418263 0.235324
0.893905 0.404003 0.194205
0.898452 0.426259 0.105293
0.875654 0.482896 -0.006461
0.854820 0.507225 -0.109568
0.850213 0.495657 -0.177376
0.844609 0.496124 -0.201239
0.824449 0.509842 -0.245653
0.783119 0.538591 -0.310877
0.728319 0.582917 -0.360220
0.698898 0.583390 -0.413760
0.706249 0.594877 -0.383841
0.674716 0.615978 -0.406606
0.642531 0.619310 -0.451230
0.629645 0.567646 -0.530401
0.613177 0.504268 -0.608053
0.591143 0.500154 -0.632769
0.569363 0.537855 -0.621722
0.551650 0.572169 -0.606881
0.535248 0.610292 -0.583998
0.504497 0.605741 -0.615274
0.461412 0.556761 -0.690736
0.416449 0.555683 -0.719573
0.372801 0.617192 -0.692888
0.355266 0.676784 -0.644786
0.368115 0.673166 -0.641357
0.377772 0.625380 -0.682779
0.335598 0.608576 -0.719033
0.253144 0.625743 -0.737810
0.203052 0.633237 -0.746847
0.201430 0.609156 -0.767043
0.220859 0.629652 -0.744822
0.201028 0.630012 -0.750115
0.164832 0.581855 -0.796414
0.145254 0.563039 -0.813565
0.141001 0.620590 -0.771354
0.106799 0.668038 -0.736423
0.043141 0.627796 -0.777182
-0.000409 0.587554 -0.809185
-0.004706 0.604311 -0.796735
-0.029700 0.561251 -0.827113
-0.077601 0.533568 -0.842189
-0.130619 0.555176 -0.821412
-0.144755 0.563237 -0.813517
-0.133155 0.541852 -0.829859
0.709278 0.517376 0.478798
0.741531 0.500682 0.446597
0.770000 0.482358 0.417649
0.775649 0.512486 0.368411
0.801843 0.516210 0.300957
0.840885 0.478208 0.253436
0.843154 0.478454 0.245301
0.842723 0.476954 0.249666
0.853739 0.460265 0.243486
0.854327 0.474009 0.213170
0.846940 0.487801 0.211526
0.849326 0.461556 0.256146
0.857659 0.440609 0.265114
0.869874 0.441776 0.219438
0.894023 0.415205 0.168306
0.914325 0.390687 0.106642
0.908038 0.418251 0.023087
0.876436 0.471163 -0.099327
0.840617 0.512578 -0.175008
0.828995 0.514137 -0.220070
0.829074 0.491237 -0.267062
0.822135 0.479715 -0.306543
0.782808 0.485367 -0.389399
0.748700 0.529145 -0.399317
0.736710 0.582791 -0.342949
0.703075 0.593696 -0.391421
0.647982 0.574568 -0.499990
0.602320 0.554096 -0.574620
0.580448 0.591722 -0.559415
0.559621 0.631825 -0.536303
0.542930 0.621447 -0.564828
0.549278 0.599335 -0.582316
0.553326 0.580420 -0.597447
0.504520 0.554812 -0.661545
0.460398 0.547523 -0.698750
0.452068 0.575254 -0.681702
0.439546 0.621884 -0.648120
0.395800 0.641927 -0.656713
0.355217 0.627811 -0.692585
0.352258 0.606335 -0.712933
0.358361 0.571250 -0.738411
0.321897 0.565929 -0.759017
0.244826 0.575530 -0.780273
0.228735 0.623243 -0.747829
0.222529 0.643910 -0.732025
0.183252 0.602724 -0.776622
0.150397 0.578211 -0.801906
0.165071 0.613207 -0.772483
0.179682 0.641412 -0.745859
0.129924 0.595123 -0.793063
0.056427 0.532896 -0.844297
0.027709 0.546282 -0.837143
-0.000733 0.548258 -0.836309
-0.032457 0.519399 -0.853915
-0.034704 0.548443 -0.835467
-0.089397 0.556491 -0.826030
-0.141273 0.550778 -0.822609
-0.139376 0.570120 -0.809653
0.740589 0.483610 0.466529
0.751318 0.503672 0.426422
0.754216 0.512572 0.410400
0.802731 0.494143 0.333833
0.847913 0.465197 0.254236
0.829936 0.492828 0.261395
0.812972 0.522048 0.257958
0.830175 0.505390 0.235350
0.845752 0.477942 0.237222
0.855949 0.470333 0.214798
0.854211 0.472532 0.216881
0.859311 0.450075 0.242933
0.878316 0.413813 0.239414
0.898472 0.399719 0.181584
0.909485 0.397030 0.123303
0.918360 0.387890 0.078456
0.927588 0.373478 0.009702
0.919418 0.385679 -0.076952
0.884834 0.443021 -0.144226
0.835780 0.503899 -0.218078
0.802457 0.527068 -0.279755
0.796790 0.527608 -0.294542
0.766276 0.553474 -0.326325
0.738665 0.598402 -0.310305
0.727182 0.591028 -0.349130
0.708467 0.554876 -0.436105
0.669209 0.524644 -0.526220
0.642804 0.572753 -0.508682
0.602606 0.621641 -0.500428
0.552853 0.616047 -0.561106
0.524070 0.589821 -0.614379
0.538194 0.589219 -0.602634
0.539934 0.586352 -0.603873
0.502348 0.579204 -0.642004
0.466250 0.562124 -0.683101
0.481715 0.559835 -0.674193
0.493562 0.556967 -0.667970
0.458371 0.562619 -0.688009
0.392333 0.549192 -0.737877
0.356109 0.518680 -0.777276
0.364017 0.523481 -0.770363
0.355856 0.524352 -0.773577
0.306177 0.557893 -0.771369
0.276926 0.600057 -0.750496
0.243119 0.573548 -0.782263
0.204667 0.564604 -0.799583
0.171601 0.574597 -0.800245
0.173818 0.568127 -0.804375
0.192309 0.541948 -0.818113
0.147244 0.534252 -0.832403
0.082315 0.541775 -0.836483
0.056583 0.555402 -0.829655
0.012952 0.552590 -0.833353
-0.025217 0.564139 -0.825295
-0.032458 0.559225 -0.828380
-0.061369 0.535569 -0.842259
-0.111587 0.545737 -0.830493
-0.129308 0.587701 -0.798678
-0.162614 0.553226 -0.817005
0.731072 0.437031 0.523963
0.750491 0.467921 0.466705
0.760062 0.489268 0.427695
0.816257 0.453326 0.358078
0.864383 0.418156 0.279264
0.830772 0.472138 0.294795
0.823918 0.493394 0.278784
0.864209 0.455435 0.213825
0.879310 0.429560 0.205651
0.873162 0.433375 0.223099
0.871775 0.441676 0.211968
0.877648 0.433827 0.203784
0.882909 0.413540 0.222386
0.891852 0.395604 0.219312
0.898160 0.400638 0.181102
0.906266 0.405102 0.120722
0.916405 0.396108 0.057450
0.919424 0.393058 -0.012841
0.908327 0.415134 -0.051055
0.886606 0.454760 -0.084397
0.848856 0.500614 -0.169790
0.797193 0.550929 -0.246902
0.770728 0.570848 -0.283038
0.767932 0.567378 -0.297259
0.760803 0.559473 -0.328889
0.744152 0.520364 -0.418877
0.714191 0.498804 -0.491046
0.684614 0.528330 -0.502165
0.680924 0.566250 -0.464438
0.650459 0.572853 -0.498741
0.586607 0.579182 -0.566075
0.538323 0.601680 -0.590075
0.526419 0.625533 -0.575840
0.515707 0.608600 -0.603036
0.481682 0.547692 -0.684117
0.469623 0.519288 -0.713999
0.484431 0.537743 -0.690043
0.496164 0.551662 -0.670440
0.463759 0.528599 -0.710993
0.407201 0.495710 -0.767111
0.380116 0.520414 -0.764644
0.369745 0.566202 -0.736685
0.355154 0.558343 -0.749746
0.348071 0.545676 -0.762289
0.300742 0.516835 -0.801521
0.264201 0.516486 -0.814518
0.237922 0.537707 -0.808866
0.189201 0.508940 -0.839752
0.183969 0.526061 -0.830310
0.197840 0.577701 -0.791909
0.164894 0.579614 -0.798034
0.098999 0.569056 -0.816318
0.067408 0.593068 -0.802326
0.031033 0.585691 -0.809940
-0.009649 0.574971 -0.818117
-0.033980 0.569472 -0.821308
-0.052025 0.563352 -0.824577
-0.075924 0.567537 -0.819840
-0.115055 0.537017 -0.835688
-0.162593 0.476110 -0.864224
0.725306 0.389671 0.567528
0.756504 0.408001 0.511114
0.777947 0.427225 0.460736
0.825178 0.408563 0.390073
0.864715 0.389091 0.317612
0.832587 0.447867 0.325906
0.837330 0.462401 0.291656
0.896968 0.389510 0.209117
0.902222 0.377266 0.208962
0.868737 0.431637 0.242869
0.872618 0.434962 0.222139
0.890227 0.408358 0.201840
0.887187 0.411821 0.208094
0.879999 0.423709 0.214643
0.884504 0.419124 0.204910
0.899592 0.409473 0.151876
0.918386 0.386669 0.083992
0.927729 0.371146 0.039610
0.911745 0.410240 0.020608
0.894329 0.446236 -0.032381
0.897711 0.429094 -0.099965
0.891146 0.425828 -0.156619
0.861602 0.449140 -0.236464
0.835612 0.447477 -0.318616
0.830971 0.435488 -0.346175
0.809186 0.445626 -0.382931
0.763103 0.492390 -0.418601
0.720555 0.533282 -0.443183
0.702114 0.540065 -0.464075
0.697515 0.529256 -0.483074
0.673406 0.519759 -0.525713
0.630365 0.523286 -0.573422
0.596927 0.547780 -0.586187
0.563193 0.543508 -0.622424
0.527395 0.488439 -0.695185
0.503332 0.503165 -0.702482
0.483659 0.568289 -0.665673
0.478233 0.595691 -0.645325
0.474139 0.577146 -0.664902
0.442523 0.548637 -0.709345
0.400135 0.530132 -0.747564
0.410354 0.536487 -0.737422
0.382395 0.533917 -0.754126
0.351676 0.542376 -0.762989
0.332098 0.533921 -0.777585
0.315180 0.555693 -0.769329
0.277456 0.572796 -0.771312
0.232689 0.567113 -0.790088
0.192472 0.583987 -0.788615
0.186095 0.589005 -0.786411
0.201467 0.523212 -0.828046
0.206369 0.517065 -0.830696
0.158484 0.568634 -0.807179
0.090135 0.558880 -0.824336
0.049186 0.532428 -0.845045
0.013071 0.532685 -0.846212
-0.015094 0.546824 -0.837112
-0.044533 0.527032 -0.848678
-0.071437 0.504494 -0.860455
-0.110583 0.485140 -0.867416
-0.151353 0.474097 -0.867367
0.727557 0.405075 0.553693
0.741313 0.374155 0.557193
0.780025 0.371564 0.503488
0.818106 0.368340 0.441620
0.850039 0.387754 0.356483
0.838616 0.420927 0.345751
0.839786 0.428585 0.333278
0.896509 0.391042 0.208226
0.919856 0.350478 0.176153
0.895612 0.364672 0.254743
0.895173 0.376864 0.237991
0.918876 0.352176 0.177874
0.911539 0.357227 0.203681
0.886653 0.397675 0.236011
0.876279 0.426927 0.223313
0.891911 0.412933 0.184340
0.923097 0.368259 0.110805
0.921478 0.381035 0.075440
0.893894 0.441422 0.078109
0.893672 0.447899 0.027139
0.913146 0.400944 -0.073537
0.910415 0.395635 -0.120901
0.891621 0.425832 -0.153879
0.861337 0.439374 -0.255047
0.830510 0.462210 -0.310829
0.812799 0.503588 -0.292843
0.787334 0.530883 -0.313477
0.757919 0.527969 -0.383156
0.727522 0.502387 -0.467247
0.720915 0.464514 -0.514303
0.734889 0.457951 -0.500219
0.702722 0.488867 -0.516905
0.653932 0.500075 -0.567714
0.626534 0.483863 -0.611009
0.578942 0.485152 -0.655327
0.535294 0.544976 -0.645338
0.514532 0.605567 -0.607080
0.485427 0.606248 -0.629939
0.464937 0.580312 -0.668634
0.461196 0.532151 -0.710010
0.447722 0.484416 -0.751589
0.420847 0.505438 -0.753273
0.414391 0.552544 -0.723170
0.400459 0.571797 -0.716017
0.361891 0.566017 -0.740715
0.340068 0.556792 -0.757850
0.326178 0.555387 -0.764953
0.305232 0.539186 -0.784928
0.269568 0.538439 -0.798384
0.212308 0.507212 -0.835261
0.164257 0.441813 -0.881941
0.196953 0.485756 -0.851616
0.237082 0.536464 -0.809937
0.196246 0.506298 -0.839732
0.123909 0.501437 -0.856275
0.076421 0.532080 -0.843239
0.037491 0.537320 -0.842545
-0.002459 0.526728 -0.850030
-0.027302 0.535601 -0.844030
-0.056421 0.545873 -0.835966
-0.100582 0.537392 -0.837313
-0.145514 0.499319 -0.854111
-0.152874 0.501436 -0.851582
-0.168533 0.470028 -0.866412
0.719164 0.425943 0.548976
0.779883 0.328105 0.533038
0.814807 0.316401 0.485778
0.825303 0.356112 0.438246
0.842874 0.396847 0.363421
0.860749 0.376224 0.342880
0.889670 0.355564 0.286465
0.908529 0.380956 0.171602
0.884596 0.416496 0.209813
0.879908 0.398953 0.258068
0.908755 0.362283 0.207160
0.905560 0.374592 0.199104
0.884240 0.397519 0.245148
0.887303 0.390327 0.245638
0.911639 0.362959 0.192809
0.934624 0.334336 0.121235
0.920195 0.370804 0.125481
0.886021 0.440502 0.144652
0.898598 0.434745 0.059316
0.935620 0.343222 -0.082542
0.937939 0.334915 -0.090008
0.915487 0.397382 -0.063010
0.894133 0.426061 -0.137833
0.861872 0.455541 -0.222842
0.825320 0.501517 -0.259475
0.812284 0.500527 -0.299447
0.807730 0.460736 -0.367824
0.783820 0.459682 -0.417515
0.730846 0.453213 -0.510355
0.716241 0.475232 -0.511031
0.730611 0.475452 -0.490053
0.723955 0.469323 -0.505593
0.664675 0.467900 -0.582475
0.638853 0.490021 -0.593082
0.608457 0.524205 -0.595810
0.583192 0.554772 -0.593393
0.544839 0.546745 -0.635783
0.511079 0.526160 -0.679672
0.468442 0.480103 -0.741662
0.456243 0.458336 -0.762738
0.473890 0.501631 -0.723736
0.461482 0.558864 -0.688988
0.425058 0.522378 -0.739221
0.413434 0.458418 -0.786718
0.397216 0.466502 -0.790314
0.374274 0.521398 -0.766853
0.328134 0.500080 -0.801403
0.310804 0.470022 -0.826124
0.302109 0.461006 -0.834388
0.234961 0.441258 -0.866074
0.205249 0.513103 -0.833426
0.205668 0.582646 -0.786272
0.205821 0.574257 -0.792381
0.188144 0.538564 -0.821310
0.156132 0.528157 -0.834670
0.105915 0.532168 -0.839987
0.056695 0.548511 -0.834219
0.008560 0.540951 -0.841011
-0.018944 0.529518 -0.848087
-0.036907 0.525750 -0.849838
-0.086678 0.508680 -0.856582
-0.134000 0.520328 -0.843388
0.732480 0.408229 0.544813
0.785869 0.327086 0.524809
0.797587 0.356395 0.486660
0.838931 0.342109 0.423269
0.877678 0.334316 0.343386
0.876180 0.348227 0.333236
0.886311 0.368609 0.280322
0.889994 0.405473 0.208572
0.884354 0.412116 0.219268
0.893577 0.392300 0.218222
0.893208 0.403418 0.198577
0.891576 0.401108 0.210248
0.908182 0.354406 0.222714
0.918739 0.329664 0.217350
0.933662 0.318602 0.163606
0.922310 0.349908 0.164040
0.912898 0.372211 0.167560
0.942504 0.320379 0.095100
0.955350 0.293404 -0.034936
0.921375 0.385306 -0.051063
0.890266 0.454915 -0.021896
0.895461 0.439396 -0.071278
0.900857 0.405302 -0.155524
0.886866 0.419559 -0.193493
0.863270 0.427728 -0.267982
0.840011 0.423531 -0.339122
0.819616 0.447559 -0.357661
0.787465 0.455673 -0.415043
0.746477 0.453209 -0.487211
0.727282 0.466384 -0.503535
0.729604 0.453523 -0.511854
0.728454 0.464519 -0.503565
0.679253 0.471782 -0.562172
0.653914 0.487155 -0.578857
0.634607 0.480246 -0.605506
0.621363 0.451360 -0.640455
0.589806 0.388901 -0.707732
0.553949 0.358952 -0.751195
0.513242 0.402063 -0.758240
0.488192 0.483138 -0.726806
0.493995 0.501537 -0.710232
0.465570 0.435933 -0.770199
0.432904 0.409283 -0.803170
0.442486 0.448106 -0.776793
0.448832 0.479857 -0.753848
0.406125 0.466176 -0.785966
0.341755 0.458795 -0.820189
0.317437 0.491445 -0.810997
0.282583 0.500671 -0.818215
0.249470 0.522254 -0.815485
0.243156 0.561348 -0.791052
0.225255 0.567585 -0.791901
0.190732 0.544390 -0.816860
0.173994 0.509878 -0.842467
0.170318 0.484551 -0.858022
0.155037 0.491503 -0.856965
0.094017 0.456560 -0.884711
0.044465 0.445571 -0.894142
0.011804 0.508988 -0.860692
-0.023480 0.520690 -0.853423
-0.054187 0.497549 -0.865742
-0.111253 0.504784 -0.856046
0.739066 0.395687 0.545173
0.788465 0.322673 0.523646
0.828193 0.317974 0.461506
0.859121 0.318899 0.400268
0.866038 0.353795 0.353280
0.873860 0.357570 0.329412
0.897671 0.352967 0.263822
0.904409 0.369661 0.213064
0.901591 0.371900 0.220959
