72545
-3.771067 -6.049932 6.416685
-3.771067 -5.909634 -4.826013
-3.771067 -4.791483 7.675334
-3.771067 0.759214 -4.150896
-3.771067 5.028919 -1.834080
-3.771067 5.362452 5.338590
-3.770664 3.724175 6.600259
-3.770463 -6.935797 1.544930
-3.770463 -6.920499 -0.061947
-3.770463 -6.800331 -0.663796
-3.770463 -6.040672 -4.696586
-3.770463 -5.042690 7.445665
-3.770463 -3.360935 -5.505962
-3.770463 -0.845247 8.372391
-3.770463 3.607227 -2.715919
-3.770463 6.437527 0.053391
-3.770463 6.733419 1.396782
-3.769457 -6.659429 -3.545827
-3.769457 -3.900989 8.114543
-3.769457 -2.625834 8.610918
-3.769457 4.031340 -2.508593
-3.769457 4.152715 -2.439954
-3.769457 5.831653 4.672531
-3.769054 5.995903 -0.821202
-3.768853 -6.770339 -2.808713
-3.768853 -6.768527 -2.942770
-3.768853 -6.302949 -4.346950
-3.768853 -3.606707 -5.555680
-3.768853 -2.803571 -5.321784
-3.768853 5.478997 5.205740
-3.768853 6.725166 2.401608
-3.767846 4.176266 6.335767
-3.766437 -7.672709 4.292903
-3.766437 -7.043486 1.811434
-3.766437 -6.960353 1.610952
-3.766437 -6.909428 -1.334887
-3.766437 -6.767520 -2.875741
-3.766437 -3.770957 8.243568
-3.766437 -2.395762 -5.186116
-3.766437 -1.582562 -5.116068
-3.766437 -0.866785 -4.905118
-3.766437 -0.053584 -4.626337
-3.766437 1.325032 7.750817
-3.766437 1.371127 -3.809312
-3.766437 3.837701 6.535042
-3.766437 4.495910 -2.239472
-3.766437 4.842124 -1.969747
-3.766437 5.948601 4.471646
-3.766437 6.730601 1.329753
-3.766437 6.783339 1.933011
-3.766437 6.784748 1.865983
-3.766236 -6.419898 -4.146065
-3.766236 -1.862553 8.456529
-3.766236 -0.714410 8.358705
-3.765833 -6.899766 -2.407950
-3.765833 -5.642929 -5.081245
-3.765833 -5.538461 6.982504
-3.765833 -4.489150 -5.580236
-3.765833 1.203052 7.792886
-3.765833 4.885804 5.871800
-3.765833 6.575812 0.590828
-3.764827 -7.438813 3.013521
-3.764827 -6.160640 -4.562528
-3.764827 -5.259275 -5.344730
-3.764827 -5.126828 -5.396260
-3.764827 -4.239353 -5.627539
-3.764827 -4.019345 8.074889
-3.764827 -3.724258 -5.585470
-3.764827 4.421031 6.203924
-3.764827 5.497919 -1.428486
-3.764827 6.421827 3.403415
-3.764827 6.784346 1.798954
-3.764223 -6.931167 1.210793
-3.764223 -5.898765 -4.857213
-3.764223 -3.255460 8.558784
-3.764223 -2.009089 -5.058299
-3.764223 -0.462197 -4.832253
-3.764223 1.966132 7.573281
-3.764223 2.387829 -3.531736
-3.764223 3.452840 -2.852392
-3.764223 6.781930 2.000040
-3.763217 -6.535034 -3.879561
-3.763217 -6.414865 5.975262
-3.763217 -1.273385 -5.042799
-3.763217 3.134806 6.995386
-3.763217 6.118286 -0.685937
-3.762613 -7.542275 4.686621
-3.762613 -7.272752 2.413283
-3.762613 -6.776780 -3.076827
-3.762613 -6.776780 -3.143453
-3.762613 -2.601680 -5.253144
-3.762613 -1.175559 -4.978790
-3.762613 -0.581359 8.345220
-3.762613 1.080267 7.832540
-3.762613 1.166418 -3.946187
-3.762613 1.268873 -3.877950
-3.762613 4.375943 -2.305696
-3.762613 4.537778 6.136694
-3.762613 6.232818 3.871207
-3.762613 6.782534 1.732328
-3.761606 -6.929758 1.478303
-3.761606 -6.778591 -3.009799
-3.761606 -6.287048 6.177354
-3.761606 -6.180768 -4.546828
-3.761606 -2.873015 8.649363
-3.761606 3.915599 -2.576427
-3.761606 6.659547 2.669723
-3.761606 6.673436 1.060834
-3.761606 6.726575 1.262725
-3.760197 -6.908019 5.071885
-3.760197 -6.024771 -4.741875
-3.760197 -4.738545 -5.539979
-3.760197 -4.139112 8.034632
-3.760197 -3.125429 8.586561
-3.760197 -3.111540 -5.459062
-3.760197 -2.999222 8.616955
-3.760197 -0.957162 8.394734
-3.760197 3.337100 -2.988864
-3.760197 4.261814 -2.372926
-3.760197 4.954443 -1.901913
-3.760197 5.645864 -1.226595
-3.760197 5.874326 -0.956467
-3.760197 6.538373 3.068875
-3.760197 6.780118 2.067874
-3.759996 -6.915467 -0.128975
-3.759996 -5.906414 6.576708
-3.759594 -6.927947 1.277821
-3.759594 -6.772150 -3.210482
-3.759594 -5.377632 -5.285954
-3.759594 -3.376434 8.517118
-3.759594 -2.907233 -5.390222
-3.759594 -1.977890 8.410436
-3.759594 -1.076526 -4.982011
-3.759594 0.148106 -4.558905
-3.759594 2.796442 -3.325618
-3.759594 6.267037 -0.349989
-3.758587 -7.431366 2.946493
-3.758587 -6.531410 5.714394
-3.758587 2.183724 -3.600375
-3.758587 4.304285 6.270148
-3.758587 6.422833 -0.012833
-3.758386 -0.965818 -4.974161
-3.757983 -7.658821 4.393345
-3.757983 -6.905805 -1.267859
-3.757983 -6.406612 5.999618
-3.757983 -4.602877 -5.584866
-3.757983 -4.259883 7.996589
-3.757983 -0.767751 -4.900892
-3.757983 0.553901 -4.286563
-3.757983 0.957884 7.868570
-3.757983 6.559105 0.523397
-3.757983 6.777300 2.134903
-3.756977 -7.019935 1.744808
-3.756977 -5.776986 6.744985
-3.756977 -5.398163 7.146150
-3.756977 -0.443679 8.316635
-3.756977 2.104215 7.543692
-3.756977 2.691974 -3.394660
-3.756977 6.060919 4.271969
-3.756977 6.298438 3.738357
-3.756977 6.781528 1.665299
-3.756373 -6.929758 1.411677
-3.756373 -6.926538 1.344045
-3.756373 -6.893325 -2.474978
-3.756373 -6.152588 6.342410
-3.756373 -5.145346 7.374007
-3.756373 -4.987939 -5.469730
-3.756373 -1.079948 8.412649
-3.756373 -0.259098 -4.763614
-3.756373 0.246737 -4.490669
-3.756373 4.606417 -2.172443
-3.756373 5.587290 5.071885
-3.756373 5.758787 -1.091732
-3.756373 6.717719 1.195294
-3.755366 -7.111923 1.946296
-3.755366 -6.775371 5.366570
-3.755366 -6.650572 -3.612654
-3.755366 -5.752026 -5.001938
-3.755366 -3.314639 -5.527700
-3.755366 -1.686426 -5.126937
-3.755366 -0.157650 -4.694975
-3.755366 3.795632 -2.644865
-3.755366 5.331051 -1.630578
-3.753957 -7.424522 2.880269
-3.753957 -6.768929 -3.277712
-3.753957 -6.649163 5.538066
-3.753957 -4.891322 7.602468
-3.753957 -4.383072 7.957941
-3.753957 -3.843219 -5.646259
-3.753957 -3.464396 -5.558699
-3.753957 0.046657 -4.626337
-3.753957 0.672660 -4.217925
-3.753957 3.218541 -3.124331
-3.753957 3.246722 6.930773
-3.753957 3.948409 6.469019
-3.753756 6.773677 2.201126
-3.753354 -6.293288 -4.413979
-3.753354 -6.141718 -4.623317
-3.753354 -5.493171 -5.228386
-3.753354 -4.089595 -5.661355
-3.753354 -0.310225 8.302143
-3.753354 4.064149 6.403802
-3.753354 5.234434 5.538066
-3.752347 -7.325891 2.546535
-3.752347 -2.728490 8.658623
-3.752347 0.438563 -4.355203
-3.752347 5.704037 4.872208
-3.752347 6.779715 1.597667
-3.751743 -6.528995 -3.946589
-3.751743 -6.409833 -4.213295
-3.751743 0.463523 8.024365
-3.751743 5.064950 -1.834080
-3.751743 6.220338 3.938235
-3.751743 6.413977 3.470443
-3.751743 6.653508 2.736751
-3.750737 -6.901577 -1.200830
-3.750737 -2.705342 -5.320375
-3.750737 2.244513 7.509070
-3.750737 3.362261 6.863744
-3.750133 -6.006051 -4.791795
-3.750133 -2.194677 -5.117679
-3.750133 1.015453 -4.082056
-3.750133 2.777723 7.259475
-3.750133 5.349570 5.405619
-3.749127 -6.909428 -0.196205
-3.749127 -3.487746 8.464380
-3.749127 2.540807 7.392928
-3.749127 3.561938 -2.783753
-3.748925 -7.392920 4.856709
-3.747718 -7.645334 4.493184
-3.747718 -7.415263 2.813241
-3.747718 -7.030602 0.337206
-3.747718 -7.027784 0.269372
-3.747718 -7.002825 1.677980
-3.747718 -4.847642 -5.540181
-3.747718 -3.959764 -5.678666
-3.747718 -2.298340 -5.185714
-3.747718 -1.481918 -5.114257
-3.747718 -1.380470 -5.111439
-3.747718 -0.669322 -4.901899
-3.747718 -0.362963 -4.832253
-3.747718 2.660775 7.325899
-3.747718 3.675866 -2.714309
-3.747718 4.644058 6.069867
-3.747718 5.935316 4.538675
-3.747718 6.777300 1.531242
-3.747114 -7.299119 2.480311
-3.747114 1.977002 -3.670624
-3.747114 2.486057 -3.531736
-3.747114 5.113460 5.671922
-3.747114 6.254155 -0.417017
-3.747114 6.530119 3.135904
-3.746107 -6.763897 -3.344741
-3.746107 -4.498208 7.907016
-3.746107 -3.216813 -5.527700
-3.746107 -2.501640 -5.253144
-3.746107 -1.444479 8.460757
-3.746107 -0.167110 8.269332
-3.746107 0.348789 -4.422231
-3.746107 5.467121 5.271562
-3.746107 6.552664 0.455563
-3.745503 -7.030602 0.405241
-3.745503 -5.630448 6.904807
-3.745503 -5.225056 -5.411961
-3.745503 -3.011702 -5.458659
-3.745503 -0.056805 -4.694774
-3.745503 0.352412 8.089180
-3.745503 1.873339 -3.670222
-3.744497 -7.026376 0.203753
-3.744497 -3.692455 -5.625929
-3.744497 2.512627 7.414667
-3.744497 6.405321 -0.079660
-3.744497 6.647872 2.802975
-3.743893 -7.402179 2.746212
-3.743893 -7.002422 5.012304
-3.743893 -5.605489 -5.166994
-3.743893 -5.251626 7.303758
-3.743893 2.381589 7.477670
-3.743893 4.714106 -2.105415
-3.743893 5.474972 -1.495112
-3.743893 5.817361 4.738955
-3.743893 6.095541 -0.752966
-3.743893 6.775086 1.464213
-3.742887 -7.589577 3.684009
-3.742887 -6.508263 5.813829
-3.742887 0.856436 -4.150493
-3.742887 5.981411 -0.888633
-3.741478 -7.030602 0.806608
-3.741478 -6.898357 -1.133399
-3.741478 -6.889098 -2.541202
-3.741478 -6.879034 5.182593
-3.741478 -6.642320 -3.679682
-3.741478 -6.004440 6.501225
-3.741478 -5.859514 -4.947591
-3.741478 -4.452919 -5.647668
-3.741478 -4.325101 -5.675848
-3.741478 -2.808200 -5.389014
-3.741478 -1.176968 -5.040787
-3.741478 1.669032 -3.670423
-3.741478 2.076840 -3.668813
-3.741478 2.518867 -3.531736
-3.741478 4.338504 6.270953
-3.741478 5.625937 -1.293624
-3.740874 -7.029597 0.738774
-3.740874 -7.027784 0.472471
-3.740874 -3.561014 -5.608819
-3.740874 0.144885 -4.625934
-3.740874 4.991479 5.804771
-3.740874 6.210677 4.005263
-3.739867 -7.121584 4.976475
-3.739867 -6.521145 -4.013618
-3.739867 -1.561829 8.498599
-3.739867 -0.566263 -4.900691
-3.739867 0.599392 7.984108
-3.739867 1.126161 -4.013618
-3.739867 2.283361 -3.598564
-3.739867 6.546625 0.389339
-3.739263 -7.248798 4.940847
-3.739263 -7.091995 1.878463
-3.739263 -7.029597 0.874039
-3.739263 -7.027784 0.671745
-3.739263 -7.027382 0.539500
-3.739263 -7.004637 -1.939353
-3.739263 -7.004637 -1.872324
-3.739263 -7.003831 -2.006381
-3.739263 -6.902987 -0.261825
-3.739263 -4.992771 7.529401
-3.739263 -4.740155 7.756856
-3.739263 0.226809 8.141315
-3.739263 1.495120 7.718007
-3.739263 2.632594 -3.463097
-3.739263 5.577829 5.138913
-3.738257 -7.027382 0.604717
-3.738257 -7.021746 0.136724
-3.738257 -6.872995 5.215402
-3.738257 -6.250816 6.264713
-3.738257 -5.494781 7.069057
-3.738257 -2.316053 8.471828
-3.738257 1.770481 -3.670423
-3.738257 2.886820 7.194660
-3.738257 3.471560 6.798527
-3.738257 4.757987 6.004449
-3.738257 6.050251 4.338998
-3.737653 -7.004637 -1.805295
-3.737653 -6.373802 6.091606
-3.737653 -3.596240 8.409026
-3.737653 -1.279222 -5.109828
-3.737653 -0.873024 -4.969532
-3.737653 1.568389 -3.740270
-3.737653 6.288977 3.804782
-3.736647 -7.734705 4.083967
-3.736647 -7.571865 3.616981
-3.736647 -7.002422 -2.073410
-3.736647 -6.399567 -4.280324
-3.736647 -5.081337 -5.485229
-3.736647 -4.828923 -5.579029
-3.736647 5.171229 -1.766246
-3.736647 6.241675 -0.484247
-3.736647 6.643243 2.869400
-3.736244 3.438548 -2.921031
-3.735238 -7.731888 4.017743
-3.735238 -7.027784 0.941068
-3.735238 -7.004637 -1.738267
-3.735238 -6.756449 -3.411769
-3.735238 -6.110519 -4.721545
-3.735238 -3.845836 8.189019
-3.735238 -3.719629 8.323479
-3.735238 -3.303769 -5.572990
-3.735238 -0.160870 -4.762004
-3.735238 3.091932 -3.257382
-3.735238 4.998122 -1.901108
-3.735238 6.405321 3.537271
-3.735238 6.522672 3.203939
-3.735036 -5.719015 -5.094128
-3.734634 -6.893727 -1.066370
-3.734634 -6.280808 -4.479799
-3.734634 -5.867163 6.664469
-3.734634 -5.337375 -5.379553
-3.734634 -4.604488 7.851058
-3.734634 -4.062622 -5.713288
-3.734634 -2.606309 -5.320174
-3.734634 -0.023592 8.221828
-3.734634 0.104829 8.186201
-3.734634 0.244724 -4.557899
-3.734634 1.466135 -3.809312
-3.733627 -7.730881 4.150392
-3.733627 -7.381446 2.680391
-3.733627 -4.694866 -5.624319
-3.733627 -0.263325 -4.830643
-3.733627 5.746307 -1.158358
-3.733627 6.164179 4.139120
-3.733024 -7.620374 4.586984
-3.733024 -7.567839 3.549952
-3.733024 -7.258863 2.347462
-3.733024 -6.876618 -2.608230
-3.733024 -6.614542 5.631664
-3.733024 -3.116774 -5.526091
-3.733024 -2.909649 -5.457452
-3.733024 2.890041 -3.322800
-3.733024 5.862651 -1.023496
-3.733024 6.543404 0.321707
-3.733024 6.693766 0.993604
-3.733024 6.759788 2.469442
-3.732017 -7.002825 -1.671238
-3.732017 -6.999202 -2.141244
-3.732017 -6.490147 5.881261
-3.732017 -5.736527 6.832746
-3.732017 -4.184803 -5.707047
-3.732017 -2.400996 -5.252742
-3.732017 -1.587997 -5.183097
-3.732017 0.040820 -4.693566
-3.732017 4.018457 -2.574012
-3.732017 4.474171 -2.307306
-3.731413 -7.492959 4.771765
-3.731413 -7.026376 1.008097
-3.731413 -6.737931 5.456947
-3.731413 -4.945870 -5.561518
-3.731413 0.742104 7.948078
-3.731413 3.583475 6.732907
-3.731413 6.196989 4.072292
-3.731413 6.389621 -0.147292
-3.730407 -7.566430 3.482923
-3.730407 -7.243162 2.279628
-3.730407 -1.292104 8.454316
-3.730407 4.129568 -2.509197
-3.730407 5.691154 4.939438
-3.728998 -7.724440 3.951319
-3.728998 -7.563209 3.415089
-3.728998 -7.016714 0.070299
-3.728998 -6.896948 -0.329457
-3.728998 -6.634872 -3.746711
-3.728998 -6.229077 -4.571788
-3.728998 -5.968812 -4.883783
-3.728998 -1.078740 -5.041189
-3.728998 -0.771374 -4.967921
-3.728998 -0.140540 8.274969
-3.728998 2.999944 7.127229
-3.728998 4.819983 -2.037581
-3.728796 -6.098240 -4.754154
-3.728394 -7.001416 -1.604008
-3.728394 -5.449290 -5.315544
-3.728394 -4.555777 -5.667595
-3.728394 -2.050957 8.413253
-3.728394 -1.161469 8.443245
-3.728394 0.878779 7.914866
-3.728394 1.363277 -3.877548
-3.728394 3.318783 -3.057302
-3.728394 5.337090 5.472648
-3.728394 6.637808 2.935623
-3.727387 -6.890507 -0.999744
-3.727387 -6.512892 -4.080647
-3.727387 -6.482296 5.910850
-3.727387 -5.352672 7.231697
-3.727387 -2.171327 8.418688
-3.727387 -1.798543 8.521345
-3.727387 -0.468236 -4.899282
-3.727387 1.896688 7.626019
-3.727387 4.867084 5.938829
-3.727387 6.535554 0.254074
-3.726784 -7.021746 1.075528
-3.726784 -6.994975 -2.208273
-3.726784 -6.104480 6.427756
-3.726784 -3.931584 -5.735027
-3.726784 0.752974 -4.217925
-3.726784 3.897282 -2.643456
-3.726784 5.282944 -1.697607
-3.726784 5.924044 4.605704
-3.726784 6.687123 0.927380
-3.725777 -2.709167 -5.387403
-3.725777 6.228189 -0.550873
-3.725777 6.517640 3.270968
-3.725173 -7.551132 3.348866
-3.725173 -7.027784 1.677980
-3.725173 -6.750411 -3.478798
-3.725173 -5.095628 7.457340
-3.725173 0.954664 -4.149286
-3.725173 1.158165 -4.013417
-3.725173 2.177484 -3.667404
-3.725173 6.755159 2.535666
-3.724167 -7.730076 4.195480
-3.724167 -4.842812 7.685600
-3.724167 0.345367 -4.489259
-3.724167 5.451220 5.338590
-3.722758 -7.228468 2.212599
-3.722758 -6.851658 5.310209
-3.722758 -6.391717 -4.347352
-3.722758 -3.700909 8.348439
-3.722758 -2.200916 -5.183097
-3.722758 -1.662071 8.538454
-3.722758 -1.178981 -5.106608
-3.722758 3.814553 6.602070
-3.722758 4.237055 -2.439954
-3.722758 5.451622 -1.562543
-3.722758 5.604399 -1.360652
-3.722758 6.396062 3.604501
-3.722154 -7.019935 1.142959
-3.722154 -6.998196 -1.536778
-3.722154 -6.864138 -2.675259
-3.722154 -4.713585 7.794295
-3.722154 -0.976687 -5.039579
-3.722154 0.649311 -4.284953
-3.722154 1.260822 -3.944979
-3.722154 1.776520 7.668088
-3.722154 2.972569 -3.324209
-3.722154 3.695995 6.666885
-3.722154 5.215513 5.605094
-3.721148 -7.713369 3.885297
-3.721148 -7.358299 2.613564
-3.721148 -2.809609 8.674726
-3.721148 -1.484938 -5.178467
-3.721148 -0.895166 8.412649
-3.721148 2.380180 -3.598564
-3.721148 4.586490 -2.240277
-3.721148 6.277906 3.871810
-3.721148 6.680280 0.860352
-3.720544 -7.010675 0.003472
-3.720544 -6.990346 -2.274698
-3.720544 -6.891916 -0.397090
-3.720544 -6.885878 -0.933319
-3.720544 -2.303573 -5.252742
-3.720544 -1.915491 8.478270
-3.720544 -0.061434 -4.760595
-3.720544 0.447017 -4.422231
-3.720544 0.546655 -4.353592
-3.720544 1.651923 7.693853
-3.720544 6.039180 4.405826
-3.719537 -5.820665 -5.038170
-3.719537 -3.947687 8.129438
-3.719537 3.109846 7.061006
-3.719537 4.511611 6.203119
-3.718933 -7.211761 2.145772
-3.718933 -6.627022 -3.813539
-3.718933 -3.405017 -5.638207
-3.718933 -3.220638 -5.594729
-3.718933 -3.015727 -5.525688
-3.718933 -2.409651 8.536642
-3.718933 0.141463 -4.692963
-3.718933 3.543218 -2.851587
-3.718933 3.773692 -2.711893
-3.718933 3.926670 6.534639
-3.718933 4.352594 -2.372120
-3.718933 4.929483 -1.968942
-3.718933 5.564142 5.205942
-3.718933 6.527301 0.188455
-3.717927 -7.534022 3.283045
-3.717927 2.785573 -3.393049
-3.717927 3.196803 -3.191360
-3.717927 4.277514 6.336774
-3.717927 5.801258 4.805179
-3.717927 6.083060 -0.820397
-3.716518 -7.018123 1.209182
-3.716518 -5.561810 -5.264215
-3.716518 -3.055381 8.631851
-3.716518 -2.812226 -5.456043
-3.716518 -2.507276 -5.318765
-3.716518 -2.094637 -5.117276
-3.716518 4.505371 -2.308111
-3.716518 6.373719 -0.212711
-3.716518 6.630763 3.003457
-3.716518 6.820778 2.201931
-3.715914 -7.058380 1.744808
-3.715914 -7.021344 1.610952
-3.715914 -6.996384 -1.469750
-3.715914 -6.338577 6.186614
-3.715914 -4.067856 8.089986
-3.715914 -3.305380 8.579516
-3.715914 -1.698906 -5.184707
-3.715914 -0.633493 8.388293
-3.715914 6.750126 2.602694
-3.714908 -6.269536 -4.546828
-3.714908 -6.074891 -4.816754
-3.714908 -3.792897 -5.738247
-3.714908 0.241704 -4.624928
-3.714908 1.409170 7.766920
-3.714908 2.685734 -3.462695
-3.714908 5.094539 5.738347
-3.714908 6.510192 3.337996
-3.714304 -6.986722 -2.341726
-3.714304 -6.505445 -4.147676
-3.714304 -6.202709 -4.668204
-3.714304 -5.583751 6.988140
-3.714304 -4.317451 8.023963
-3.714304 -1.386710 -5.178467
-3.714304 2.043225 7.605689
-3.714304 3.656744 -2.781337
-3.714304 5.964301 -0.955662
-3.714304 6.672832 0.792920
-3.713297 -6.883060 -0.866291
-3.713297 -6.851658 -2.742489
-3.713297 -6.742158 -3.545827
-3.713297 -6.585959 5.726873
-3.713297 -4.919502 -5.622910
-3.713297 -4.187823 8.054560
-3.713297 6.152907 4.205544
-3.713297 6.817155 2.268155
-3.712693 -7.710954 4.293708
-3.712693 -6.887287 -0.464521
-3.712693 -5.957942 6.585968
-3.712693 -3.175348 8.609105
-3.712693 -2.921927 8.666070
-3.712693 -2.535456 8.618365
-3.712693 -1.282644 -5.175246
-3.712693 -0.753661 8.399767
-3.711687 -5.681576 -5.185915
-3.711687 -5.199895 7.386487
-3.711687 -0.164292 -4.829234
-3.711687 0.992908 -4.149286
-3.711687 5.679681 5.006265
-3.711687 6.212689 -0.618103
-3.710278 -7.017117 1.544930
-3.710278 -7.015305 1.276010
-3.710278 -7.004637 -0.063154
-3.710278 -6.952906 5.079735
-3.710278 -6.205929 6.354286
-3.710278 -5.829925 6.753640
-3.710278 -5.165475 -5.513611
-3.710278 -4.782224 -5.663167
-3.710278 -4.529609 -5.717917
-3.710278 -4.439231 7.982297
-3.710278 -1.904622 -5.122308
-3.710278 -0.495208 8.367359
-3.710278 -0.369806 -4.899282
-3.710278 0.037398 -4.760595
-3.710278 1.289203 7.818248
-3.710278 4.623527 6.136896
-3.710278 5.040191 -1.901108
-3.710278 5.848762 -1.090524
-3.709674 -6.826698 5.375828
-3.709674 -6.702907 5.549137
-3.709674 -4.270753 -5.747507
-3.709674 -3.423334 8.532013
-3.709674 -0.671737 -4.969329
-3.709674 1.163600 7.848844
-3.709674 6.387608 3.671731
-3.709674 6.811519 2.335787
-3.708668 -7.015305 1.477901
-3.708668 -5.448082 7.155006
-3.708668 -5.290475 -5.463692
-3.708668 -4.944261 7.611728
-3.708668 -4.400181 -5.739858
-3.708668 6.666794 0.725690
-3.708668 6.758782 1.128265
-3.708668 6.817155 1.464616
-3.708064 -7.014903 1.343844
-3.708064 -6.993164 -1.402721
-3.708064 -6.883060 -0.531349
-3.708064 -6.620983 -3.880567
-3.708064 -6.382055 -4.414381
-3.708064 -5.931373 -4.974161
-3.708064 -4.651186 -5.711476
-3.708064 -2.610133 -5.387202
-3.708064 6.515627 0.121225
-3.707057 -7.013896 1.410470
-3.707057 -6.880845 -0.799262
-3.707057 -6.454116 6.007468
-3.707057 -3.512101 -5.688328
-3.707057 -2.657033 8.666876
-3.707057 1.107441 -4.080647
-3.707057 5.731009 -1.225790
-3.706655 2.185133 7.570867
-3.706454 -7.578909 4.686822
-3.706454 -3.631264 -5.705438
-3.706454 -2.916493 -5.524480
-3.706454 -1.814244 -5.133178
-3.706454 -0.363164 8.347030
-3.706454 1.040412 7.886685
-3.706454 2.614076 -3.530327
-3.706454 6.268446 3.938235
-3.705447 -6.980684 -2.407950
-3.705447 -6.845218 -2.809518
-3.705447 -3.119189 -5.593119
-3.705447 6.623919 3.069680
-3.705447 6.742679 2.670528
-3.705447 6.807493 2.402413
-3.705045 0.342549 -4.556288
-3.704038 -7.691630 3.819677
-3.704038 -5.410643 -5.407532
-3.704038 -5.026989 -5.596340
-3.704038 -2.408041 -5.319973
-3.704038 -1.080753 -5.106608
-3.704038 -0.876849 -5.036358
-3.704038 1.969957 -3.736043
-3.704038 2.495317 -3.597356
-3.704038 3.334080 6.930773
-3.704038 3.421640 -2.988864
-3.704038 4.034359 6.468416
-3.704038 4.151307 6.402796
-3.704038 4.692165 -2.172443
-3.704038 5.911564 4.672732
-3.704038 6.028512 4.472854
-3.704038 6.813934 1.397587
-3.703434 -7.514498 3.216016
-3.703434 -6.879838 -0.597371
-3.703434 -6.878027 -0.731428
-3.703434 -6.842400 -3.077632
-3.703434 -5.794297 -5.105199
-3.703434 -0.995005 8.439421
-3.703434 -0.268760 -4.897672
-3.703434 1.559733 -3.807701
-3.703434 4.433511 6.270953
-3.703434 4.971351 5.871800
-3.703434 6.054478 -0.887426
-3.703434 6.502744 3.403415
-3.702428 -6.841594 -3.010604
-3.702428 -6.840587 -2.876546
-3.702428 -4.138910 -5.778304
-3.702428 -3.793300 8.273157
-3.702428 -2.712387 -5.454432
-3.702428 0.918030 7.924528
-3.702428 2.066776 -3.734432
-3.702428 3.217334 6.996795
-3.702428 6.660956 0.658662
-3.701824 -7.695857 4.392540
-3.701824 -6.879034 -0.664198
-3.701824 -6.840587 -2.943575
-3.701824 -6.497594 -4.214704
-3.701824 1.661987 -3.740270
-3.701824 6.801857 2.470247
-3.701824 6.811117 1.330559
-3.700818 -7.469208 3.013521
-3.700818 -7.318041 4.919712
-3.700818 2.325631 7.537654
-3.700818 5.320383 5.539676
-3.700214 -6.260478 -4.613857
-3.700214 -4.007067 -5.795815
-3.700214 -0.222061 8.326700
-3.700214 3.302881 -3.122922
-3.700214 5.437532 5.405619
-3.700214 6.352986 -0.280142
-3.699207 -7.462364 2.946493
-3.699207 -7.202100 2.079548
-3.699207 -6.997793 -0.130183
-3.699207 -6.988937 -1.335290
-3.699207 -6.733302 -3.612855
-3.699207 -6.177749 -4.746505
-3.699207 -5.684998 6.915877
-3.699207 -1.182403 -5.173838
-3.699207 -0.573308 -4.966311
-3.699207 2.746523 7.325497
-3.699207 6.863250 1.867190
-3.698805 6.753750 1.061438
-3.697798 -7.150369 1.945491
-3.697798 -7.121584 0.873637
-3.697798 -6.613133 -3.947596
-3.697798 -5.304564 7.314023
-3.697798 -4.549536 7.928352
-3.697798 -2.006070 -5.117679
-3.697798 0.138645 -4.759991
-3.697798 0.443595 -4.489259
-3.697798 0.847176 -4.217522
-3.697798 1.459895 -3.876340
-3.697798 5.152107 -1.833275
-3.697798 6.806084 1.263530
-3.697798 6.861036 2.000845
-3.697798 6.862445 1.933816
-3.697798 6.862847 1.800162
-3.697194 -7.122993 0.940263
-3.697194 -6.975048 -2.474978
-3.697194 -6.057781 6.511894
-3.697194 -2.205345 -5.250125
-3.697194 -1.593633 -5.248516
-3.697194 -1.238160 8.473237
-3.697194 1.355427 -3.944577
-3.697194 1.437351 7.774770
-3.697194 2.627965 7.393532
-3.697194 4.729806 6.071477
-3.697194 5.552870 5.272971
-3.697194 6.653106 0.591029
-3.696188 -6.559993 5.823492
-3.696188 -3.529815 8.473639
-3.696188 -3.492375 -5.714898
-3.696188 0.239691 -4.691956
-3.696188 3.446197 6.864549
-3.696188 6.795013 2.536471
-3.696188 6.859627 2.068679
-3.695584 -7.452702 2.880269
-3.695584 -7.434989 4.859728
-3.695584 -6.854074 -3.144862
-3.695584 -6.851658 -3.212092
-3.695584 -5.521351 -5.346542
-3.695584 -3.251837 -5.661758
-3.695584 -0.777614 -5.036157
-3.695584 -0.063850 -4.827624
-3.695584 5.422235 -1.629773
-3.695584 6.862445 1.733133
-3.694578 -7.121584 1.007291
-3.694578 -7.119370 0.806608
-3.694578 2.275712 -3.667404
-3.694578 6.196989 -0.685333
-3.693974 -7.046706 5.023576
-3.693974 -6.037452 -4.908742
-3.693974 -5.047118 7.538661
-3.693974 -3.608921 -5.734826
-3.693974 -1.614365 8.550934
-3.693974 -1.358731 8.489340
-3.693974 4.109036 -2.576427
-3.693974 5.669415 5.073294
-3.693974 6.259187 4.005263
-3.693974 6.500933 0.053995
-3.693974 6.735835 2.736751
-3.693974 6.861036 1.665501
-3.692967 -3.018545 -5.592716
-3.692967 -2.104298 -5.181487
-3.692967 5.786967 4.872812
-3.692967 6.140427 4.272573
-3.692967 6.377141 3.738759
-3.692967 6.856809 2.135708
-3.691558 -7.680962 4.492580
-3.691558 -6.925128 5.187222
-3.691558 -6.848438 -3.279121
-3.691558 -6.302547 6.277193
-3.691558 -4.790074 7.765511
-3.691558 -3.225267 -5.661758
-3.691558 -2.816050 -5.523072
-3.691558 -1.490775 -5.246704
-3.691558 0.435745 8.089986
-3.691558 0.544239 -4.420621
-3.691558 1.863878 -3.737653
-3.691558 2.599785 7.414265
-3.691558 6.614257 3.136709
-3.691156 5.196993 5.672123
-3.690954 -7.127624 1.877657
-3.690954 -7.115144 0.738774
-3.690954 -6.984307 -1.268261
-3.690954 -2.308404 -5.318765
-3.690954 1.765650 -3.737653
-3.690954 4.328842 6.338585
-3.690954 4.798445 -2.104610
-3.690954 6.644652 0.523397
-3.690954 6.786157 2.603499
-3.690954 6.797630 1.196300
-3.689948 -3.876029 -5.812925
-3.689948 -1.481113 8.508462
-3.689948 0.643876 -4.351982
-3.689948 3.990679 -2.643254
-3.689948 5.489062 -1.562946
-3.689948 6.493485 3.470443
-3.689545 0.555712 8.041475
-3.689344 -7.501213 3.147981
-3.689344 -7.438411 2.813241
-3.689344 -7.119773 1.073917
-3.689344 -6.969613 -2.542007
-3.689344 -6.489341 -4.281531
-3.689344 -6.373199 -4.481208
-3.689344 0.034982 -4.827422
-3.689344 0.746533 -4.284953
-3.689344 2.169634 -3.734432
-3.689344 2.475188 7.487734
-3.689344 3.872323 -2.711289
-3.688338 -6.920096 5.216610
-3.688338 -6.670500 5.643339
-3.688338 -6.422312 6.099456
-3.688338 -5.644539 -5.281124
-3.688338 -2.511302 -5.385793
-3.688338 -0.982927 -5.105199
-3.688338 6.858218 1.598472
-3.687734 -6.606692 -4.013618
-3.687734 -5.917484 6.673729
-3.687734 -0.475080 -4.966311
-3.687734 2.858640 7.260280
-3.687734 3.066167 -3.326021
-3.687734 3.527316 -2.920226
-3.686929 -6.792480 5.470030
-3.686929 0.685140 8.003633
-3.686929 1.151925 -4.080647
-3.686929 1.578453 7.746590
-3.686728 -7.113332 0.671142
-3.686728 -6.989943 -0.197212
-3.686728 -5.539869 7.074492
-3.685318 -7.185393 2.012520
-3.685318 -7.109105 0.269372
-3.685318 -7.109105 0.337206
-3.685318 -6.024771 -4.941150
-3.685318 -5.789466 6.844823
-3.685318 -4.654407 7.869174
-3.685318 -4.361131 -5.786556
-3.685318 -3.356306 -5.722346
-3.685318 -1.987351 8.483905
-3.685318 -1.389528 -5.245496
-3.685318 2.883801 -3.391439
-3.685318 3.555698 6.798527
-3.685318 4.221556 -2.508593
-3.685318 4.841924 6.005857
-3.685318 5.833665 -1.157553
-3.685318 6.017038 4.539883
-3.684715 -6.979677 -1.201233
-3.684715 -6.843809 -3.346149
-3.684715 -6.724646 -3.679883
-3.684715 -5.895544 -5.067357
-3.684715 -5.123808 -5.603587
-3.684715 -2.613354 -5.454432
-3.684715 1.254179 -4.012008
-3.684715 4.566160 -2.307306
-3.684715 5.256776 -1.765441
-3.684715 5.603796 -1.427681
-3.684715 6.729796 2.803579
-3.683708 -7.161842 4.981507
-3.683708 -7.116955 1.141349
-3.683708 -7.110514 0.604113
-3.683708 -4.867972 -5.705438
-3.683708 -2.228694 8.483502
-3.683708 0.339530 -4.623317
-3.683708 5.898681 4.739761
-3.683708 6.637205 0.455965
-3.683104 -7.107293 0.404839
-3.683104 -4.738344 -5.750727
-3.683104 -3.637504 8.416473
-3.683104 -0.166707 -4.896263
-3.683104 0.189571 8.190831
-3.683104 4.472360 -2.373530
-3.683104 5.950613 -1.022288
-3.683104 6.789377 1.128265
-3.683104 6.856406 1.532047
-3.682098 -7.111923 1.811836
-3.682098 -7.105884 0.202947
-3.682098 -3.728284 -5.790783
-3.682098 -2.920518 -5.591509
-3.682098 -1.852488 8.547713
-3.682098 -1.723664 8.573478
-3.682098 6.251538 4.072292
-3.681494 -6.159029 6.439430
-3.681494 -5.404403 7.240957
-3.681494 0.323427 8.145139
-3.681494 0.947619 -4.216314
-3.681494 3.755375 -2.780532
-3.681494 5.074209 5.804771
-3.680689 -7.108300 0.537084
-3.680689 -5.245386 -5.551050
-3.680689 -1.698906 -5.249924
-3.680689 -1.287274 -5.243886
-3.680689 1.715731 7.722033
-3.680689 3.904931 6.600259
-3.680689 6.024084 -0.954857
-3.680689 6.485232 -0.012229
-3.680487 2.780138 -3.460078
-3.679079 -7.661034 3.751239
-3.679079 -7.283822 4.939438
-3.679079 -7.105884 0.471867
-3.679079 -6.532216 5.919103
-3.679079 -3.884886 8.195863
-3.679079 -3.757471 8.324888
-3.679079 -2.717017 -5.522668
-3.679079 -1.210583 8.482899
-3.679079 -1.084577 -5.173838
-3.679079 0.826846 7.969012
-3.679079 2.228812 7.586164
-3.679079 3.175064 -3.258791
-3.679079 4.908952 -2.035971
-3.679079 6.177867 -0.751355
-3.679079 6.329839 -0.347976
-3.678475 -7.113332 1.208579
-3.678475 -6.271347 -4.676256
-3.678475 -6.140309 -4.840104
-3.678475 -5.368372 -5.493482
-3.678475 -5.148567 7.467405
-3.678475 -4.604488 -5.791185
-3.678475 -3.125429 -5.661758
-3.678475 0.067591 8.238536
-3.678475 0.134418 -4.826013
-3.678475 2.969348 7.194258
-3.678475 3.638427 -2.849171
-3.678475 3.669224 6.733914
-3.678475 4.488060 6.270953
-3.678475 5.554480 -1.495514
-3.678475 5.714705 -1.292818
-3.678475 6.605803 3.204342
-3.677468 -4.478080 -5.800646
-3.677468 -2.096448 8.448277
-3.677468 0.439570 -4.556288
-3.677468 6.724563 2.870205
-3.676864 -7.101255 0.136523
-3.676864 -6.961762 -2.609035
-3.676864 -6.600250 -4.081854
-3.676864 -0.677575 -5.034949
-3.676864 4.330654 -2.439149
-3.676864 6.485232 3.537472
-3.675858 -7.531607 4.773778
-3.675858 -7.490544 3.081355
-3.675858 -6.975048 -1.134204
-3.675858 -4.891322 7.693048
-3.675858 -1.077331 8.468607
-3.675858 -0.055396 8.281009
-3.675858 0.237276 -4.758985
-3.675858 3.783354 6.667690
-3.675858 5.421631 5.472648
-3.675858 5.657539 5.139719
-3.675858 6.366473 3.805788
-3.675858 6.629958 0.389339
-3.675858 6.780521 1.061438
-3.675254 -7.654593 4.586179
-3.675254 -6.981086 -0.264240
-3.675254 -6.900169 5.313631
-3.675254 -6.837770 -3.413178
-3.675254 -6.480485 -4.348560
-3.675254 -5.750617 -5.224763
-3.675254 -2.413073 -5.385592
-3.675254 -1.807199 -5.182896
-3.675254 -0.375442 -4.966311
-3.674449 -7.084146 -1.940158
-3.674449 -7.084146 -1.873129
-3.674449 -4.980291 -5.692958
-3.674449 -0.178382 8.334147
-3.674248 -4.216003 -5.823593
-3.674248 -0.067674 -4.895860
-3.674248 6.129356 4.338998
-3.672838 -7.196464 1.007291
-3.672838 -7.083743 -1.806101
-3.672838 -7.083743 -2.007187
-3.672838 -4.376832 8.051742
-3.672838 -2.004460 -5.181286
-3.672838 1.088117 -4.147676
-3.672838 3.081867 7.128034
-3.672838 5.537169 5.339999
-3.672235 -5.482301 -5.433901
-3.672235 -4.758875 7.808184
-3.672235 -2.107318 -5.248516
-3.671228 -7.110514 1.275607
-3.671228 -6.714380 -3.746912
-3.671228 -6.360719 -4.548237
-3.671228 -5.998402 -4.999120
-3.671228 -4.243982 8.082136
-3.671228 0.540415 -4.487649
-3.671228 1.659572 -3.807299
-3.671228 1.860054 7.694457
-3.671228 2.359850 -3.665995
-3.671228 3.401310 -3.055088
-3.671228 5.772474 4.939438
-3.670624 -7.392920 2.679787
-3.670624 -7.082334 -1.739072
-3.670624 -7.080925 -2.074215
-3.670624 -6.642723 5.737742
-3.670624 -2.853490 8.696465
-3.670624 -0.881881 -5.101978
-3.670624 2.592136 -3.597356
-3.670624 2.939960 -3.391439
-3.670624 3.285772 -3.190353
-3.670624 5.302066 5.606503
-3.669618 -1.188643 -5.243483
-3.669618 -0.811431 8.440829
-3.669618 0.031560 -4.894652
-3.669618 1.318792 -4.012008
-3.669618 1.557318 -3.874931
-3.669618 6.773677 0.994811
-3.669014 -7.766912 4.195480
-3.669014 -4.076712 -5.847345
-3.669014 -3.992977 8.144133
-3.669014 -3.840200 -5.847345
-3.669014 -2.821485 -5.590100
-3.669014 -2.724666 8.694251
-3.669014 -2.210176 -5.317154
-3.669014 -2.206150 8.487125
-3.669014 0.843956 -4.284551
-3.669014 1.990085 7.662452
-3.669014 4.013828 6.535042
-3.669014 6.243688 4.139523
-3.669014 6.719128 2.936428
-3.669014 6.738050 0.860754
-3.668209 -7.197873 1.073515
-3.668209 2.794832 7.325899
-3.668209 4.215316 6.403400
-3.668209 4.597359 6.203924
-3.668209 6.621504 0.321707
-3.668008 -2.978087 8.674726
-3.668008 2.014441 -3.801461
-3.668008 5.016842 -1.968137
-3.668008 6.469532 -0.079660
-3.666599 -7.107293 1.342636
-3.666599 -7.096625 0.069293
-3.666599 -7.077704 -2.142049
-3.666599 -6.970417 -1.067578
-3.666599 -6.010882 6.597441
-3.666599 -4.114554 8.106693
-3.666599 -3.737141 8.350250
-3.666599 -2.328734 8.546707
-3.666599 -0.271578 -4.964700
-3.666599 0.641260 -4.420420
-3.666599 1.105227 7.904198
-3.666599 1.966736 -3.801461
-3.666599 2.704454 -3.528717
-3.665995 -7.080925 -1.671842
-3.665995 -6.592803 -4.147676
-3.665995 -6.387087 6.193055
-3.665995 -5.631857 6.995386
-3.664989 -6.258867 6.364954
-3.664989 -5.251626 7.396149
-3.664989 -3.225670 8.622994
-3.664989 -3.025590 -5.660148
-3.664989 -1.905427 -5.181286
-3.664989 0.741501 -4.351982
-3.664989 6.313735 -0.416615
-3.664989 6.597953 3.270968
-3.664385 -7.217800 0.939457
-3.664385 -6.831329 -3.480207
-3.664385 -6.756047 5.561415
-3.664385 -5.881454 6.764308
-3.664385 -2.588394 8.669693
-3.664385 0.338322 -4.690346
-3.664385 2.128370 7.633869
-3.663378 -7.074886 -2.208273
-3.663378 -5.857903 -5.157936
-3.663378 -5.597639 -5.376333
-3.663378 -4.490559 8.003633
-3.663378 -3.097249 8.651779
-3.663378 -0.548348 8.414059
-3.663378 1.453655 -3.943369
-3.663378 4.946593 5.938829
-3.663378 6.003753 4.606911
-3.662774 -7.196464 1.140745
-3.662774 -7.105884 1.410067
-3.662774 -6.975048 -0.331470
-3.662774 -4.454730 -5.831645
-3.662774 -3.944668 -5.864454
-3.662774 -3.435814 -5.787764
-3.662774 -3.350468 8.587367
-3.662774 -0.780634 -5.101978
-3.662774 5.387613 -1.696802
-3.662774 6.765827 0.927783
-3.661969 -7.370779 2.613564
-3.661969 -6.952906 -2.676064
-3.661969 -3.200912 -5.733417
-3.661969 -1.599068 -5.315544
-3.661768 5.935316 -1.089719
-3.661365 -6.472232 -4.415589
-3.661365 -6.243167 -4.768244
-3.661365 -4.994381 7.620383
-3.661365 -2.617782 -5.521461
-3.661365 -2.515931 -5.452822
-3.661365 -2.451720 8.616955
-3.661365 -0.578139 -5.033340
-3.660359 -7.079113 -1.604813
-3.660359 -6.628431 5.790681
-3.660359 -3.553164 -5.811516
-3.660359 0.132405 -4.893042
-3.660359 5.687129 -1.359847
-3.660359 6.475973 3.605306
-3.659755 -7.213573 0.872429
-3.659755 -7.154395 1.877657
-3.659755 -7.102664 1.476693
-3.659755 -7.071666 -2.275301
-3.659755 -6.999605 5.090604
-3.659755 -6.968204 -1.000549
-3.659755 -6.708342 -3.813941
-3.659755 -5.082947 -5.688328
-3.659755 -2.312430 -5.385793
-3.659755 -1.494398 -5.314135
-3.659755 4.670426 -2.239472
-3.659755 5.127550 -1.900303
-3.659755 6.158946 -0.819592
-3.659755 6.712687 3.004262
-3.658749 -7.105884 1.677980
-3.658749 -5.494781 7.161850
-3.658749 -0.670529 8.429760
-3.658749 5.883384 4.806789
-3.658749 6.357213 3.872817
-3.658749 6.733017 0.793725
-3.658145 -7.750809 4.293708
-3.658145 -7.102664 1.544124
-3.658145 -7.090184 0.002868
-3.658145 -6.871989 5.408638
-3.658145 -6.500814 6.013708
-3.658145 -4.953721 -5.741267
-3.658145 -2.921927 -5.658739
-3.658145 -0.986349 -5.173234
-3.658145 -0.412882 8.391917
-3.658145 1.374146 7.833143
-3.658145 2.124344 -3.801461
-3.658145 4.088706 -2.644060
-3.658145 6.118889 4.406832
-3.657138 -7.349039 2.547340
-3.657138 -7.102664 1.610952
-3.657138 -0.172947 -4.963291
-3.656736 -0.071499 -4.962888
-3.655729 -7.641308 3.683204
-3.655729 -6.105890 -4.933300
-3.655729 -5.206336 -5.636798
-3.655729 -2.720036 -5.589697
-3.655729 0.030755 -4.961681
-3.655729 0.234257 -4.826013
-3.655729 0.436550 -4.623317
-3.655729 1.247940 7.874206
-3.655729 3.190764 7.063824
-3.655729 3.508798 -2.987254
-3.655729 5.175859 5.739354
-3.655729 5.644858 5.206748
-3.655528 -3.465403 8.538051
-3.655528 2.465123 -3.662774
-3.655327 6.455644 -0.146085
-3.655125 -7.211761 0.805803
-3.655125 -5.739546 6.928961
-3.655125 -4.820871 -5.788167
-3.655125 4.202635 -2.575622
-3.655125 5.471550 -1.628968
-3.654119 -7.791469 4.083363
-3.654119 -7.195658 1.208176
-3.654119 -7.067036 -2.342330
-3.654119 -6.349246 -4.613857
-3.654119 -5.714386 -5.315342
-3.654119 4.123328 6.469825
-3.654119 4.706457 6.137701
-3.653716 2.263232 -3.736043
-3.653515 -7.789657 4.016938
-3.653515 -7.628829 3.616779
-3.653515 -7.076295 -1.537583
-3.653515 -6.962165 -0.933722
-3.653515 -6.823478 -3.547235
-3.653515 -2.008083 -5.247107
-3.653515 -0.275805 8.374405
-3.653515 1.760215 -3.806292
-3.653515 6.301256 -0.483241
-3.653515 6.591110 3.337996
-3.653515 6.729796 0.726294
-3.652508 -7.331528 2.480311
-3.652508 -7.141915 1.810629
-3.652508 -6.967197 -0.398096
-3.652508 -6.585959 -4.214704
-3.652508 -6.113538 6.523972
-3.652508 -3.129455 -5.728787
-3.652508 -1.803978 -5.247107
-3.652508 -0.912678 8.467802
-3.652508 -0.482125 -5.033340
-3.651905 -6.614542 5.834361
-3.651905 -5.357705 7.324088
-3.651905 -4.688425 -5.833053
-3.651905 0.537597 -4.554678
-3.651905 1.856833 -3.804682
-3.651905 3.968739 -2.711893
-3.651905 4.776706 -2.170833
-3.651905 5.525293 -1.562946
-3.651905 6.233825 4.206551
-3.651905 6.616069 0.256087
-3.650898 -7.625004 3.549751
-3.650898 -7.450287 2.812435
-3.650898 -7.208943 0.738573
-3.649489 -7.316230 2.413283
-3.649489 -6.703310 -3.881171
-3.649489 -5.321674 -5.580438
-3.649489 -4.598247 7.946267
-3.649489 -4.303161 -5.862442
-3.649489 -3.922728 -5.889414
-3.649489 -2.695077 8.697873
-3.649489 -1.906232 -5.247107
-3.649489 -1.701925 -5.315544
-3.649489 -1.392547 -5.312524
-3.649489 -1.092025 -5.241873
-3.649489 1.000759 7.951903
-3.649489 1.044438 -4.215911
-3.649489 3.301472 6.998204
-3.649489 6.824401 2.671333
-3.649489 6.896664 2.202736
-3.649288 -6.943646 -2.743093
-3.648885 -7.205723 0.670940
-3.648885 -6.956127 -0.866693
-3.648885 -5.962573 -5.091109
-3.648885 -0.377455 -5.033138
-3.648885 0.335102 -4.757374
-3.648885 3.622726 -2.917005
-3.648885 3.855012 -2.779727
-3.648885 6.705642 3.070486
-3.647879 -7.620374 3.482722
-3.647879 -7.612122 4.685212
-3.647879 -2.110539 -5.315544
-3.647879 1.247134 -4.079036
-3.647879 2.716934 7.392928
-3.647879 5.613659 5.272971
-3.647275 -7.782612 3.950715
-3.647275 -7.132253 1.744808
-3.647275 -7.062406 -2.409359
-3.647275 -5.097037 7.548725
-3.647275 0.842547 -4.351579
-3.647275 2.411380 7.560399
-3.647275 5.826218 -1.224984
-3.647275 6.467117 3.672334
-3.646269 -7.083340 -0.063356
-3.646269 -6.926538 -2.810323
-3.646269 0.738884 -4.419011
-3.646269 0.942989 -4.283343
-3.646269 3.417011 6.931175
-3.646269 4.311934 -2.507788
-3.646269 4.417811 6.341001
-3.646269 5.053879 5.871800
-3.646269 5.236245 -1.832469
-3.646269 5.522073 5.407028
-3.645866 6.889618 2.268960
-3.645665 -7.731888 4.391937
-3.645665 -7.203911 0.603308
-3.645665 -6.957938 -0.464924
-3.645665 -6.951497 -0.800067
-3.645665 -3.829129 8.273157
-3.645665 -2.825310 -5.657128
-3.645665 -1.662876 8.596223
-3.645665 -0.683211 -5.101978
-3.645665 0.030353 -5.028709
-3.645665 0.129386 -4.960071
-3.645665 3.039798 -3.391439
-3.645665 4.540999 -2.373530
-3.645665 5.404521 5.539676
-3.644659 -6.461967 -4.481410
-3.644659 -5.440232 -5.524279
-3.644659 5.770663 5.006466
-3.644659 6.135798 -0.887023
-3.643250 -7.612525 3.414888
-3.643250 -7.305561 2.347462
-3.643250 -6.724042 5.655014
-3.643250 -4.930372 -5.780115
-3.643250 -3.657230 -5.864454
-3.643250 -3.296926 -5.800646
-3.643250 -2.416898 -5.452419
-3.643250 -0.276610 -5.031930
-3.643250 -0.073914 -5.029917
-3.643250 0.637838 -4.487448
-3.643250 4.425862 -2.439954
-3.643250 6.725972 0.658662
-3.643048 -0.885102 -5.170617
-3.643048 3.734843 -2.847561
-3.642847 6.440748 -0.212509
-3.642646 -7.350851 4.920718
-3.642646 -6.971827 5.193462
-3.642646 -6.816031 -3.614063
-3.642646 -6.350655 6.284842
-3.642646 -4.838383 7.772958
-3.642646 -4.546718 -5.872304
-3.642646 -1.294721 -5.312524
-3.642646 -0.174960 -5.030320
-3.642646 0.630793 8.061001
-3.642646 1.522294 7.803554
-3.642646 2.875951 -3.458468
-3.642646 6.287367 -0.550269
-3.642646 6.347552 3.939845
-3.641639 -7.428145 2.746212
-3.641639 -7.202100 0.536279
-3.641639 -6.951497 -0.531952
-3.641639 -6.948276 -0.731831
-3.641639 -6.921908 -3.145063
-3.641639 -5.970222 6.683994
-3.641639 -3.570274 8.479678
-3.641639 5.991072 4.673336
-3.641639 6.893846 1.465421
-3.641035 -7.296906 2.279628
-3.641035 -7.091995 5.029614
-3.641035 -6.846626 5.481907
-3.641035 -6.695862 -3.948200
-3.641035 -6.578512 -4.281733
-3.641035 -6.341797 -4.682496
-3.641035 -6.207338 -4.863453
-3.641035 -5.820665 -5.250125
-3.641035 1.653332 -3.873321
-3.641035 2.685734 7.416076
-3.641035 4.887212 -2.102999
-3.641035 6.108222 4.473055
-3.641035 6.883580 2.335989
-3.640029 -6.948276 -0.598981
-3.640029 -6.947874 -0.664802
-3.640029 -6.920499 -3.078438
-3.640029 -6.920499 -2.877352
-3.640029 -1.526403 8.562407
-3.640029 0.760220 8.018328
-3.639425 -7.207132 1.274802
-3.639425 -7.199282 0.469250
-3.639425 -5.556979 -5.465101
-3.639425 -4.156221 -5.898874
-3.639425 -3.027201 -5.727378
-3.639425 -2.519554 -5.519851
-3.639425 -2.211786 -5.384183
-3.639425 3.384000 -3.121311
-3.639425 6.582656 3.405025
-3.638418 -6.918687 -3.011409
-3.638418 -5.840995 6.853478
-3.638418 -5.210966 7.459152
-3.638418 0.231439 -4.893042
-3.638418 0.433330 -4.690346
-3.638418 6.818967 2.737556
-3.637010 -7.770132 3.885297
-3.637010 -7.470617 4.858319
-3.637010 -7.057374 -2.475783
-3.637010 -6.918687 -2.944380
-3.637010 -6.468005 6.107306
-3.637010 -6.214987 6.450903
-3.637010 -5.684998 -5.382774
-3.637010 -5.301546 -5.622306
-3.637010 -2.621205 -5.588490
-3.637010 -1.779019 8.602262
-3.637010 -1.395767 8.537447
-3.637010 1.415410 -4.010599
-3.637010 1.658163 7.779400
-3.637010 3.154734 -3.326021
-3.637010 5.281535 5.672929
-3.637010 5.662974 -1.427278
-3.637010 6.889618 1.398392
-3.637010 6.942356 1.934622
-3.637010 6.942758 1.867392
-3.637010 6.943363 1.800363
-3.636808 -4.702515 7.884271
-3.636406 -7.196464 0.404033
-3.636406 -1.906232 8.573478
-3.636406 0.518273 8.099245
-3.636406 3.878562 6.668696
-3.636406 6.078028 4.540084
-3.636406 6.880963 2.403017
-3.635399 -7.283822 2.212599
-3.635399 -5.586770 7.081536
-3.634795 -7.594006 3.349470
-3.634795 -7.194652 0.336602
-3.634795 -3.510692 -5.864454
-3.634795 0.397903 8.150573
-3.634795 2.560936 7.493371
-3.634795 5.868287 4.873818
-3.634795 6.035959 -1.021886
-3.634795 6.940545 2.001650
-3.633789 -6.067041 -5.024080
-3.633789 -2.010700 -5.315342
-3.633789 -1.194480 -5.310512
-3.633789 0.332485 -4.824403
-3.633789 3.993900 6.602070
-3.633185 -7.713369 4.490366
-3.633185 -7.074886 -0.130586
-3.633185 -6.931167 -3.212092
-3.633185 -2.030225 8.515708
-3.633185 0.027736 -5.095738
-3.633185 2.434729 7.564425
-3.633185 6.458864 3.739363
-3.633185 6.698395 3.137514
-3.633185 6.941954 1.733334
-3.632179 -6.584550 5.928563
-3.632179 -5.454121 7.250216
-3.632179 -0.989167 -5.239257
-3.632179 0.535181 -4.621707
-3.632179 1.180105 -4.147676
-3.632179 1.797454 7.749811
-3.632179 3.267052 -3.258992
-3.632179 6.877743 2.470649
-3.632179 6.884989 1.331364
-3.630769 -7.293081 1.072911
-3.630769 -7.203911 1.342233
-3.630769 -6.691233 -4.015228
-3.630769 -4.309803 8.117764
-3.630769 -3.158037 -5.800646
-3.630769 -1.907842 -5.314135
-3.630769 -1.260502 8.524967
-3.630769 0.128983 -5.028307
-3.630769 1.299268 -4.079036
-3.630769 2.939759 7.260884
-3.630769 5.347356 -1.764635
-3.630769 5.748924 5.073495
-3.630769 6.608219 0.189059
-3.630769 6.938733 2.068679
-3.630569 -7.087366 -1.470555
-3.630569 4.996511 -2.034562
-3.630166 -7.191834 0.269372
-3.630166 -5.161047 -5.721138
-3.630166 -5.034840 -5.775486
-3.630166 -3.131669 -5.795815
-3.630166 -1.807199 -5.314135
-3.630166 -0.177980 -5.097348
-3.630166 -0.075927 -5.096946
-3.630166 2.801072 -3.527107
-3.630166 6.273680 -0.616292
-3.629159 -2.925148 -5.725768
-3.629159 -0.786874 -5.170617
-3.629159 2.684124 -3.595746
-3.629159 5.594536 5.339999
-3.629159 6.728388 0.591029
-3.628556 -7.051335 -2.542812
-3.628556 -6.927947 -3.279121
-3.628556 -2.725471 -5.657128
-3.628556 -2.143147 8.497794
-3.628556 -0.584379 -5.100368
-3.628556 3.641446 6.800942
-3.628556 3.758193 6.734718
-3.627549 -6.950088 5.316650
-3.627549 -6.450896 -4.548438
-3.627549 -4.008074 -5.928464
-3.627549 -3.674339 8.419090
-3.627549 -3.394147 -5.881161
-3.627549 -1.126445 8.510274
-3.627549 2.313152 7.612532
-3.627549 6.338696 4.006069
-3.627549 6.812928 2.804585
-3.627549 6.872509 2.536471
-3.627549 6.878548 1.263933
-3.627549 6.940545 1.666306
-3.626945 -7.197873 4.981507
-3.626945 -6.807778 -3.681091
-3.626945 -6.569655 -4.348963
-3.626945 -5.797115 -5.303064
-3.626945 -4.939631 7.700294
-3.626945 -4.395551 -5.907932
-3.626945 -3.925344 8.205121
-3.626945 -2.316053 -5.451211
-3.626945 0.910984 7.991557
-3.626945 1.551078 -3.942966
-3.626945 4.573809 6.270953
-3.626945 4.648888 -2.306501
-3.626945 4.832865 6.072886
-3.626945 6.228189 4.273378
-3.626945 6.935512 2.135708
-3.625939 -5.925133 -5.183097
-3.625939 -0.382085 -5.100167
-3.625939 -0.279831 -5.098959
-3.625939 0.153541 8.240347
-3.625939 2.189964 7.649167
-3.625939 3.538589 6.865556
-3.624530 -7.292277 1.140342
-3.624530 -7.270940 2.145772
-3.624530 -7.188210 0.202746
-3.624530 -7.081931 -1.403124
-3.624530 -6.697271 5.749418
-3.624530 -4.429569 8.072877
-3.624530 -1.606113 -5.382774
-3.624530 -0.996615 8.498599
-3.624530 0.229627 -4.960071
-3.624530 0.634416 -4.554678
-3.624530 0.831476 -4.418809
-3.624530 1.933323 7.721630
-3.624530 2.222572 -3.801461
-3.624530 4.453640 6.339995
-3.624530 4.924451 6.005857
-3.624530 6.867074 2.603499
-3.624329 -6.332136 -4.748115
-3.624127 -3.880055 -5.936314
-3.623926 -7.199282 1.408859
-3.623926 -6.308586 -4.782334
-3.623926 -1.500638 -5.381164
-3.623926 -0.485748 -5.100368
-3.623926 0.028541 8.291072
-3.623926 1.448220 -4.010599
-3.623926 2.331871 -3.734432
-3.623926 6.112650 -0.954052
-3.623926 6.574000 3.471852
-3.623926 6.721343 0.523598
-3.622920 -7.310191 1.005681
-3.622920 -6.067041 6.609518
-3.622920 -4.765115 -5.869084
-3.622920 2.567176 -3.664385
-3.622920 6.937324 1.599277
-3.622316 -6.923317 -3.346149
-3.622316 -6.684792 -4.082257
-3.622316 -0.863564 8.485717
-3.622316 2.068185 7.689827
-3.622316 5.155328 5.806180
-3.621309 -7.546099 3.214809
-3.621309 -5.686407 7.007866
-3.621309 0.431921 -4.757374
-3.621309 1.048262 7.964785
-3.621309 4.068376 -2.711893
-3.621309 6.416392 -0.280142
-3.621309 6.871704 1.197105
-3.620907 0.735059 -4.486039
-3.620705 -7.570456 3.281032
-3.620705 -7.317639 4.937828
-3.620705 -6.172918 -4.958460
-3.620705 -3.383278 -5.908134
-3.620705 1.753170 -3.871711
-3.620705 3.953240 -2.779123
-3.620705 4.102998 6.536048
-3.620705 5.977385 4.740365
-3.620705 6.931285 2.202736
-3.619699 -7.814617 4.103491
-3.619699 -7.747186 3.819677
-3.619699 -4.041286 8.158423
-3.619699 -2.114363 -5.383780
-3.619699 -0.889731 -5.237646
-3.619699 3.053687 7.195063
-3.619699 3.486858 -3.052673
-3.619699 5.794213 -1.291208
-3.619699 6.372914 -0.347976
-3.619699 6.485635 -0.146085
-3.618290 -7.812201 3.998822
-3.618290 -7.565423 4.772571
-3.618290 -7.308379 0.938652
-3.618290 -7.074484 -1.336095
-3.618290 -7.067036 -0.197212
-3.618290 -7.043486 -2.609841
-3.618290 -6.809589 5.573895
-3.618290 -4.159843 8.138496
-3.618290 -3.746601 -5.942554
-3.618290 -3.486135 -5.901894
-3.618290 -2.897773 8.713172
-3.618290 -0.091426 8.334952
-3.618290 -0.076128 -5.163975
-3.618290 0.290215 8.201499
-3.618290 0.329667 -4.891432
-3.618290 1.979216 -3.868691
-3.618290 3.604007 -2.983228
-3.618290 4.179487 -2.644261
-3.618290 5.104201 -1.967332
-3.618290 6.689137 3.205348
-3.618290 6.806487 2.870607
-3.618088 -1.093233 -5.309304
-3.617686 -1.705146 -5.382573
-3.617686 -0.729104 8.467198
-3.617686 -0.179187 -5.164377
-3.617686 0.127977 -5.095336
-3.617686 5.505769 5.474057
-3.617686 5.943971 -1.156748
-3.617686 6.934908 1.532852
-3.616680 -7.532613 3.147981
-3.616680 -6.308988 6.373207
-3.616680 -5.931373 6.774976
-3.616680 -5.301546 7.405408
-3.616680 -4.250625 -5.940943
-3.616680 -2.827725 -5.725768
-3.616680 -2.522171 -5.586879
-3.616680 5.450012 -1.697607
-3.616680 6.257375 -0.683522
-3.616680 6.449605 3.805788
-3.616680 6.712687 0.456569
-3.616076 -7.305561 0.871624
-3.616076 -7.194652 1.475888
-3.616076 -2.421326 -5.519650
-3.616076 0.941379 -4.350372
-3.616076 1.824023 7.756251
-3.615069 -7.685189 4.585373
-3.615069 -6.432377 6.199295
-3.615069 -5.394942 -5.608417
-3.615069 -2.766131 8.715385
-3.615069 -1.400800 -5.379352
-3.615069 -0.688444 -5.169006
-3.615069 0.531558 -4.688735
-3.615069 0.595769 -4.621707
-3.615069 1.186748 7.930566
-3.615069 3.836292 -2.845951
-3.615069 4.684315 6.204730
-3.615069 6.210677 4.339803
-3.615069 6.330442 4.073098
-3.614465 -5.045709 7.629239
-3.614465 -4.540478 8.018931
-3.614465 -3.018747 8.690023
-3.614465 -0.596858 8.451095
-3.614465 0.025119 -5.162767
-3.614465 5.386003 5.606705
-3.614465 6.864659 1.129271
-3.613459 -7.524361 3.080550
-3.613459 -7.303750 0.804998
-3.613459 -7.255642 2.078743
-3.613459 -7.213573 1.944686
-3.613459 -7.182172 0.135114
-3.613459 -4.626227 -5.925243
-3.613459 5.632378 -1.494709
-3.612050 -7.805358 4.195480
-3.612050 -7.519127 3.013320
-3.612050 -7.302341 0.737768
-3.612050 -7.068042 -1.269066
-3.612050 -6.917278 -3.413379
-3.612050 -6.799525 -3.748120
-3.612050 -6.678753 -4.149286
-3.612050 -5.259275 -5.711677
-3.612050 -0.279831 -5.165786
-3.612050 1.700232 7.795100
-3.612050 2.096164 -3.867081
-3.612050 4.294623 -2.574817
